NCOLS 225
NROWS 25
XLLCORNER -121.263930677
YLLCORNER 39.7176715229
CELLSIZE 0.00381074763999997 
NODATA_value -9999 
1437.08401899859 1440.76279969063 1444.44158038267 1455.26883335933 1466.57045169739 1503.42038846582 1548.74229470205 1591.0193745898 1630.94433233207 1657.97575182608 1663.7346053902 1666.48244216452 1656.44211663207 1646.43954639118 1646.37919431946 1646.31884224774 1670.97758122929 1701.17368687595 1722.72137521318 1739.19393281662 1745.4684277739 1738.94081105613 1728.2483919858 1705.48962595143 1683.33728025713 1669.26701884194 1655.19675742675 1611.80515195823 1564.52831881219 1590.31452013619 1647.98304136578 1687.74307662614 1710.25578519478 1720.52887686362 1705.10173063587 1684.58548777151 1631.68569690258 1578.78590603366 1596.06556325671 1617.11587456732 1639.26572161552 1661.75858930724 1652.10020452398 1618.71826255794 1577.22377331788 1522.96647555565 1462.73677519113 1378.88689249961 1295.09612652109 1215.18120978595 1135.2662930508 1088.24314289965 1048.04174429557 1080.69327456446 1154.07106886386 1168.95141601214 1113.65904203319 1067.30226809153 1045.37240992234 1031.38660679073 1107.4878837934 1183.58916079607 1236.88492958579 1287.48349489295 1297.95991602112 1291.84401392601 1315.71385098401 1367.19154842923 1394.91390606249 1375.23504918177 1362.11068063028 1387.00542978981 1411.90017894925 1470.60196431777 1530.70316513189 1577.36781041563 1620.09685853036 1650.03725097028 1670.96706549771 1689.41130088639 1704.12497213288 1715.73264018317 1715.86832866443 1715.86926732515 1710.87432037556 1705.87937342597 1721.14553222105 1740.28628435554 1771.21140196304 1808.4078131025 1836.47622432823 1854.07924279527 1874.54455830713 1902.40399109672 1931.36981584969 1971.21922982219 2011.06864379469 1999.61932767262 1982.81504103488 1899.57732591465 1790.33510051206 1769.5413776466 1826.59201590164 1877.08426411704 1915.12983871903 1939.50283506156 1891.17108482171 1842.83933458168 1825.2194763302 1808.50086126093 1743.82868072839 1665.99890076497 1592.46561183045 1521.82184275376 1471.24769264971 1449.42334692583 1441.71439004278 1482.82044764199 1525.34544041759 1604.28563300765 1683.22582559771 1755.47154421374 1826.54242697137 1898.33735028275 1970.49880478992 2023.97123301677 2056.96150859732 2078.67896086967 2072.83949963642 2062.69183592098 2015.2339465596 1967.77605719838 1862.14522098252 1751.22957343114 1675.34324668216 1612.41811461869 1583.67201164352 1583.6772829031 1581.91339941023 1576.95369239585 1571.49049098713 1563.56082908314 1555.63116717912 1542.79281192984 1529.86820307621 1523.3390654832 1518.44963097901 1516.46513226748 1516.34463548427 1501.84106027688 1467.66482830022 1437.83610011261 1422.11732132491 1407.88269551888 1422.61155846342 1437.3404214079 1409.52152736779 1374.88800567414 1363.61021677856 1363.57012030423 1394.932065513 1459.194034152 1523.1665263892 1586.46854786058 1645.83879866643 1674.87912395273 1703.91944923913 1690.4225279098 1673.62330517141 1701.01862791338 1743.84812457407 1797.80412373156 1860.70435101875 1918.46407426612 1967.37908962599 1998.30865760998 1947.72993317964 1897.1512087493 1843.94071284991 1790.71425684618 1756.04887173758 1725.81752615571 1688.89906027619 1647.88859468391 1613.31220904417 1587.14118274113 1567.72757119491 1568.93863972754 1569.5221251585 1560.27081837712 1551.0195115957 1540.28506627575 1529.33522520906 1521.56212337217 1515.24046764587 1510.34227572425 1506.86987074413 1503.33145826586 1499.64802839494 1497.26320784353 1503.88641656823 1510.50962529292 1514.0461608901 1517.38287738896 1513.93274836772 1508.24923121314 1502.33834000374 1496.25282130472 1492.52202398627 1492.65264856818 1493.97104053517 1500.28763236214 1506.71455151496 1534.19709489663 1561.6796382782 1598.37878020465 1637.12284545009 1623.82300259907 1580.16924725197 1547.80384979798 1529.52745282403 1514.83745102502 1510.46059440999 1507.81712892167 1527.7770758431
1489.18887994183 1459.61855290437 1430.04822586691 1436.25709272605 1444.84023055793 1482.89765897869 1530.72893183601 1571.622139334 1607.15570548935 1630.82162830682 1634.90757079021 1637.2179409249 1631.98723474955 1626.7934927659 1631.33364616616 1635.87379956645 1668.20821871017 1706.76887976049 1726.92932271375 1736.29200822412 1735.82750766871 1723.02647439819 1703.16315005673 1662.83881767471 1623.1209056328 1591.48507786992 1559.84925010705 1523.4501546066 1486.41990182999 1530.31428668462 1609.5215380786 1660.59406698107 1684.57057274534 1692.86693273488 1668.23877556311 1638.69191817797 1577.84579967557 1516.99968117316 1541.81221546563 1571.22708217989 1578.31124345994 1578.42892544686 1548.32059414458 1495.90928863531 1465.12860976344 1468.37763040138 1454.68132391002 1373.96814949487 1292.94966511921 1191.91424598981 1090.87882686042 1048.19462583111 1017.61246594123 1031.17907228681 1069.42573389082 1086.82253152269 1079.20812334453 1069.04773508944 1051.92749627733 1040.66698386832 1095.85687236186 1151.04676085541 1184.74012503409 1215.89109902782 1238.87405151457 1258.47915728567 1297.50924298002 1354.4239014376 1395.68139582871 1405.69671063098 1416.57777980985 1432.48063191047 1448.38348401102 1483.23403529256 1518.86891155097 1553.03598525737 1586.77313631318 1612.13803819999 1631.60405553178 1649.25342181984 1664.17620695141 1675.7702185605 1675.0694515014 1674.10212377438 1663.25198804224 1652.40185231009 1673.57427414926 1700.87046780228 1724.80151266331 1746.9417240762 1772.22887622399 1801.12404448597 1831.36419614397 1865.07881771611 1900.36294174704 1951.0862777443 2001.80961374156 2003.50639815357 2000.08540016167 1936.09213792469 1848.38864268652 1838.78978860866 1897.9315657146 1947.41197090269 1978.55678729666 1993.41409204238 1921.66158667236 1849.90908130208 1822.8859808374 1797.17546870922 1735.98226261963 1665.0532408642 1596.79534005525 1530.33384868039 1484.80164149079 1469.25071231966 1461.57686356164 1481.14419099646 1503.18920839121 1588.8210453042 1674.45288221719 1746.09656792964 1815.28542572145 1878.3955256928 1938.42837486467 1981.66784054824 2006.50267461026 2028.38178091449 2043.03548042021 2053.74897270422 2030.33918012832 2006.9293875525 1926.68853915167 1841.28478558146 1776.10458594092 1718.40730100474 1679.78359339661 1657.20456506631 1636.73105167322 1620.06096709374 1604.199072605 1592.29624688429 1580.39342116354 1557.82782172346 1535.07486027052 1523.04483409924 1513.76400800814 1504.07626430077 1494.12741491826 1478.09728799254 1453.74940861513 1433.01020676636 1423.98307230159 1415.60425355066 1419.87742224063 1424.15059093059 1403.35977499679 1378.55460590244 1363.97513858425 1354.31580339573 1371.76942021906 1417.62936697 1467.10950995313 1524.97457041214 1580.41968943869 1617.19722847334 1653.97476750813 1650.15555220605 1643.18468206694 1670.17919684444 1709.03552968841 1747.07805556011 1784.46638886618 1823.01701595112 1863.56747590733 1895.46944451719 1888.17729430072 1880.88514408426 1822.73923826469 1764.28493513368 1726.58599153032 1693.84527932735 1662.84986345913 1632.92243377668 1603.98903164473 1576.35420814605 1555.73482737127 1556.52766813372 1556.6302075605 1545.91510358348 1535.19999960643 1525.37549969936 1515.68034194322 1508.44425522361 1502.3317133824 1498.37393719012 1496.57444329074 1493.79320545735 1488.85509227588 1484.84671923074 1487.28765025361 1489.72858127648 1492.22523496819 1494.72549592669 1495.15904508472 1494.91248894251 1493.8471795253 1492.1530524132 1492.17993550232 1495.02904059041 1499.18636891598 1508.84878290442 1518.63569427308 1552.1825403224 1585.72938637159 1618.395456349 1650.86610504171 1645.425405214 1617.87341901895 1589.70348039121 1560.76227527761 1536.75636790899 1526.94255028158 1519.21958352931 1538.76130268056
1523.24722675217 1467.95137391792 1412.65552108367 1417.38903742771 1426.10604174986 1464.99473335411 1513.88853015316 1552.81394002264 1584.03879131562 1605.03030163477 1609.13820589039 1611.74483094979 1607.97533678788 1604.26062581624 1614.97214245463 1625.68365909307 1664.05619562603 1708.62512543076 1727.43872337459 1731.13837947125 1724.09869299963 1703.57740049702 1673.45697103894 1615.52573394702 1558.17206479226 1508.51594869678 1458.85983260131 1428.52400297487 1400.74820987325 1461.26940098392 1560.32050968929 1622.90587010754 1650.37175281855 1656.8099135815 1619.09493941261 1576.89552383512 1506.16017467268 1435.42482551024 1462.96350343113 1495.78232207695 1492.45033290154 1477.84042620317 1433.45496690853 1367.09891641494 1344.27702063888 1389.9438574493 1411.62197023807 1338.42737049962 1264.77232604828 1160.92929900912 1057.08627196996 1031.09658873351 1021.25368700771 1019.85526973927 1023.1774904593 1036.3061736378 1061.19855230824 1076.99032137241 1067.90409417422 1062.59996453903 1100.18553350488 1137.77110247073 1155.72362638374 1171.35415347944 1198.42962142344 1230.23809059931 1274.0961184395 1329.0481710636 1376.33083015078 1408.310042892 1436.99204233711 1446.54865256393 1456.1052627907 1474.79152690612 1493.85570580193 1516.77038692526 1540.81288876362 1561.43307888792 1579.64199083542 1597.29824201093 1614.12501388056 1627.42666471053 1627.70833005082 1627.64265183087 1614.69911828251 1601.75558473415 1626.52318230906 1658.50239505017 1678.28032550412 1691.56509153057 1715.9193500707 1752.96495259528 1790.29968310557 1828.38131241863 1868.26286688623 1925.8503037683 1983.43774065037 1997.45244068824 2006.91867099494 1963.9316938532 1900.41258396453 1901.94982693678 1960.74377951987 2006.27409249596 2026.63234462881 2029.73709029213 1941.09529103021 1852.45349176795 1815.20935459193 1779.47348634816 1725.49417657964 1666.50919322879 1606.51852745711 1545.85150991248 1504.76420073117 1491.72489714645 1482.71660861044 1487.64871237955 1495.41339833014 1575.87276959531 1656.33214086048 1723.59805194544 1788.54859812219 1843.9109780957 1894.41953875512 1932.02238320559 1955.48126716091 1981.93729967611 2015.71999396594 2045.91335945058 2045.02214425623 2044.13092906189 1987.94002742907 1926.72534024742 1870.41548604099 1815.92046848097 1768.9634234447 1728.34731537397 1692.23839535232 1664.27131683042 1638.26292741445 1621.84953916756 1605.43615092061 1575.12462908729 1544.56889478618 1526.82618146197 1512.36853490088 1495.72814126928 1477.68715050272 1460.34776584706 1443.96801276685 1430.43863712122 1426.16024395281 1421.93411601075 1418.72795252943 1415.52178904812 1399.99642708111 1382.49797048774 1364.71868455668 1346.8042766088 1351.33016524075 1379.36682717542 1414.17294602141 1464.65814244149 1514.23997053006 1556.85315864877 1599.46634676763 1605.80161318186 1609.3205094383 1635.71775410809 1670.10486278813 1695.08366761 1712.49944747881 1736.49903083016 1771.82665091504 1805.24970156423 1830.04142938712 1854.83315721002 1795.95758824647 1736.57462766399 1697.87234024706 1664.11044246462 1637.98736528044 1616.53865468497 1592.34664941939 1564.57085631763 1543.7624866951 1544.2197764119 1543.95876196502 1532.44127458865 1520.92378721224 1512.02091613377 1503.49776496364 1496.77276509754 1490.86933714142 1487.85197667848 1487.72539385982 1485.99873048418 1480.75671632432 1476.13807541491 1475.84357141532 1475.54906741573 1477.17145737055 1478.91793951322 1482.35364799257 1486.34524035697 1489.39432385493 1491.71954306934 1495.39826905826 1501.29656155065 1508.3615996689 1520.33637676211 1532.4392629743 1568.99137288347 1605.5434827925 1633.99315659241 1660.64511071733 1663.10051534814 1651.44360649377 1628.10828897543 1590.19714857516 1558.32488518565 1543.81819706669 1531.55371655876 1548.52761310192
1484.0621459637 1433.57591248655 1383.0896790094 1399.10414219819 1419.53152408542 1457.72452123387 1501.80869867582 1536.39639694709 1563.64808442333 1584.7700105672 1595.77867303083 1601.65942906795 1585.76132957073 1570.01136304838 1593.2697127922 1616.52806253611 1654.2925182222 1695.30651198038 1712.93723352871 1716.84600351045 1703.89596734692 1669.78227231336 1624.99629635457 1549.2903790299 1474.01607712375 1404.49414194457 1334.9722067654 1306.92822089656 1284.38027492221 1355.51596717798 1467.53213675901 1542.44341827028 1581.61967854642 1586.68071487955 1520.10802456808 1450.55606125317 1362.04603185795 1273.53600246273 1284.29225686265 1300.38196470117 1305.50438924326 1307.20536558202 1273.59572666549 1213.93132049479 1187.88667773781 1214.73326489 1226.49607830976 1178.60425866734 1130.94628995714 1098.6202116193 1066.29413328145 1107.14517295753 1163.17314503546 1163.53069624011 1132.76735369023 1114.09214530664 1109.91769394941 1110.08448287574 1122.11875807172 1135.88469371876 1169.28798498279 1202.69127624682 1220.57547185205 1236.62422671794 1233.64315729116 1222.79239390843 1229.54375332118 1252.50138152644 1275.32929706113 1297.89838497324 1319.19975386422 1333.14775567795 1347.09575749163 1380.81591133567 1415.35451772825 1432.07047906324 1443.56614779613 1458.75482640765 1476.54551058496 1497.46263851287 1523.07219355632 1545.06751942961 1553.71374017353 1562.13893608598 1562.36957729836 1562.60021851075 1581.58323267809 1604.15232059011 1631.30742580595 1660.90307486951 1691.82620005896 1724.27129711153 1757.82253719146 1794.23125542379 1831.72593679692 1879.90324884987 1928.08056090281 1951.05191239577 1971.39206472721 1956.56192979742 1927.96483871904 1940.39964827151 1988.94702048516 2018.60208828943 2012.4028770157 1994.67653238968 1915.65397184193 1836.63141129389 1785.84714366482 1735.89153123484 1704.28463971327 1677.71230855149 1638.13156205246 1589.80226372822 1550.73669121581 1524.9414406405 1509.04027694449 1527.35566935944 1546.00184561549 1573.13717618232 1600.27250674915 1647.83645020442 1698.98547996516 1750.40345953423 1801.95758961911 1852.57848428674 1902.17660387836 1951.12934843124 1998.50444525202 2042.57162140798 2057.99128925074 2073.41095709344 2035.83132311978 1993.43688559637 1938.54668905344 1879.03293825124 1830.01010542968 1789.81222512913 1750.54491470259 1712.9585974665 1677.82728238475 1654.72224981496 1631.61721724509 1601.60114868592 1571.46364215499 1547.14863779784 1524.3264358331 1503.77975100216 1484.69319081013 1466.92645594356 1450.96493063354 1437.01644632958 1429.60134488479 1422.61565475062 1424.00999674131 1425.40433873199 1407.99065950512 1387.56460852047 1366.9989113274 1346.36602287334 1341.94403885751 1354.50627329541 1373.90102388066 1409.12090668909 1444.97324768848 1485.70441084137 1526.43557399441 1544.86035985067 1561.55343086786 1586.55604585911 1614.46062410134 1637.94168787536 1657.86683436526 1686.22050565051 1729.07622559869 1766.24723196965 1777.6556711467 1789.06411032376 1746.52828603838 1703.66532237811 1672.19950305351 1643.45633851327 1617.94119202511 1594.40134257872 1571.29156236341 1548.74361638893 1531.87295405829 1532.33024377509 1532.1821221494 1522.54665973884 1512.91119732825 1504.97737328925 1497.29067765948 1490.97153241779 1485.27721834676 1483.20027361316 1484.74660187522 1485.28153728908 1483.59445917577 1482.4780587153 1485.32026299208 1488.16246726886 1489.58276996642 1490.9110243389 1493.77116725742 1497.13541796654 1501.33129746977 1506.16588330528 1513.06690099208 1523.35658507137 1533.60845625251 1543.7012083799 1553.88282947567 1581.02481455574 1608.1667996357 1631.65603911556 1654.33482942374 1664.83634987727 1668.23564074949 1652.32904290525 1612.32676365407 1578.47127361925 1562.29167441956 1547.66915164645 1553.35089839469
1444.41180710772 1399.15632988277 1353.90085265783 1381.25662591614 1413.43080801882 1450.97991910252 1490.31138757862 1520.52324658828 1543.69022588097 1564.7958016402 1582.50034490339 1591.55274089737 1563.85839274967 1536.40315908334 1571.9146843138 1607.4262095444 1644.50838303089 1681.94240017037 1698.33794791802 1702.38753931538 1683.5113467461 1635.8553303259 1576.46790771668 1483.09202527916 1390.01944187043 1300.98908486454 1211.95872785865 1186.00518326956 1168.4096381289 1249.72114648101 1374.19245983222 1461.08441045916 1511.78438221716 1515.51809996639 1420.63403326823 1324.24803791665 1218.30479063608 1112.36154335551 1106.76973133572 1106.56967658729 1120.06185851618 1137.82558858628 1115.0776615961 1062.43725643308 1033.43145082023 1041.60803174706 1043.55249554883 1020.84963521993 999.066439970832 1037.57893847067 1076.0914369705 1183.18024315676 1304.49177380076 1306.92181593526 1242.89469616492 1192.84824891926 1159.57282129967 1143.8969640283 1176.33239427323 1208.53187565539 1238.05565249896 1267.57942934253 1285.50467234913 1302.05815877987 1269.57247003253 1216.8068620086 1186.9624562661 1178.221594087 1176.68702746303 1189.53184518643 1203.17492524167 1221.44830258847 1239.72167993521 1288.09711935265 1337.7186097503 1348.50281038083 1347.91148196943 1357.8199906812 1375.1264310345 1399.22931721432 1433.53287522127 1464.11903046474 1480.97501034812 1497.74160519435 1511.19422589609 1524.64684659783 1537.91219182823 1551.14172379631 1585.60342683736 1631.36426833645 1668.81768176918 1696.74650072877 1726.51970203517 1761.05746102529 1795.98486613013 1834.74522410703 1873.50558208393 1905.32369346894 1936.41711779569 1949.48247753337 1955.49098348996 1978.71882590684 2017.10156871445 2031.07803410039 1998.7356670683 1960.50678090391 1890.97597979396 1821.44517868375 1757.38252857165 1693.48034183342 1683.9242039532 1689.27964844713 1669.70969153262 1633.37665008134 1596.26274326613 1558.03024389116 1535.46401578084 1567.07619304692 1596.54774928519 1571.08293933025 1545.61812937532 1573.40614188945 1610.53967216316 1657.86274424944 1710.34407014602 1773.71584510684 1849.022957777 1920.0692677155 1980.69985755111 2038.31830933192 2069.85081205028 2101.38331476851 2082.60296458023 2059.25186544866 2006.14565175191 1942.02975177135 1891.11662179567 1851.30965227751 1808.90449218277 1761.80592776803 1717.62587542678 1687.74269473944 1657.859514052 1628.13069368621 1598.40458567851 1567.58112426034 1536.47631785535 1512.02486716375 1491.84265640199 1473.64656118003 1458.16700327837 1443.84760040682 1433.29351427002 1423.54387723896 1429.49319638866 1435.44251553833 1416.13423372923 1392.7805883533 1369.43923834401 1346.10380429331 1332.79323853196 1329.98576059298 1334.06012876909 1354.07388477277 1376.23528794779 1414.96377610545 1453.69226426326 1484.00564750927 1513.66573946308 1537.30277796461 1558.83637013585 1580.91356972943 1603.42775738815 1636.12398698124 1686.33935203465 1727.13635964157 1725.25029038313 1723.3642211247 1697.06459275664 1670.61691089867 1646.46291612369 1622.8568584394 1598.02423693361 1572.44105336495 1550.4089915224 1533.01604737443 1520.02710040362 1520.47983728912 1520.44128460559 1512.70378207039 1504.96627953517 1497.98762138721 1491.11916997262 1485.20641813204 1479.7303236087 1478.58584107023 1481.78003984088 1484.57004680019 1486.47205096817 1488.87999065157 1494.79743998217 1500.71488931278 1501.95074787542 1502.88353863422 1505.21657185762 1508.01039130271 1513.36362533367 1520.68253721813 1530.77304512179 1545.40859247499 1558.83455049358 1567.17048051586 1575.55561218728 1593.3307243356 1611.10583648385 1629.66485217182 1648.39779565107 1666.79589655884 1684.99870502055 1676.42813477539 1634.44170820882 1598.68237683286 1580.82986655244 1563.85530061717 1558.32912494954
1362.48764125184 1360.72785212587 1358.96806299989 1403.1498110748 1450.38019290402 1491.99278167043 1531.74247791671 1554.11417891596 1563.06141402242 1570.81531051964 1576.60036233263 1579.511958617 1570.21963235735 1561.04221789956 1582.12488505879 1603.20755221809 1632.8654322053 1664.44426056222 1674.85283843559 1672.83812716532 1646.59956389691 1589.95165041777 1521.78695954357 1420.2556355875 1320.50173109911 1244.43643496889 1168.37113883868 1126.20839905091 1088.53792094157 1140.16587023907 1230.76073420551 1298.26340385424 1343.52641459986 1350.45822419934 1276.90377378048 1200.79661676498 1108.44577201535 1016.09492726573 1033.62118220935 1057.05099647622 1071.22097443582 1082.50217406809 1078.42015350387 1063.00201988694 1054.80285431728 1057.96070200192 1058.89577036943 1051.039995882 1044.01906302446 1091.73257246832 1139.44608191218 1257.98741516292 1391.21843725713 1424.48052659826 1401.85795607604 1359.7515396972 1294.27257377356 1242.9767080178 1230.45265296822 1223.25085874776 1276.40450460664 1329.55815046551 1357.46243040717 1382.38047224154 1370.53800640611 1343.49340624839 1323.47443262406 1309.92395108788 1292.40986752684 1266.98684427849 1247.74331818204 1264.34378444812 1280.94425071413 1309.57461239512 1338.7029420538 1367.81155917243 1396.91440244398 1415.29379601913 1426.11770593459 1446.58100608039 1481.51190574261 1511.34422661833 1522.34501771917 1533.87154107059 1564.88972811999 1595.90791516939 1609.53550915029 1619.8374467271 1655.19305447076 1703.88149036112 1744.35991834901 1775.42544558497 1801.91595126915 1816.5878911756 1832.55640191695 1861.27929340945 1890.00218490196 1920.68219563104 1951.5665060727 1968.78105353771 1980.64474827686 2005.16758252522 2040.83184482666 2056.99687081616 2036.15576746409 2007.27661750792 1935.65467754706 1864.03273758594 1810.47439501213 1757.44613029864 1740.71396884834 1733.940808007 1698.11630631715 1642.75390132257 1601.22493957866 1579.51243712592 1570.98026348161 1608.02940176006 1643.22809624768 1630.93746105351 1618.64682585934 1619.9385248048 1623.61383346392 1653.16676998221 1695.81974327948 1747.66706419552 1809.59088821989 1866.10044370628 1909.37458107929 1951.2384421196 1980.88891987213 2010.53939762456 2027.64167001513 2043.60398128077 2025.38471159656 1994.5179193455 1957.65975162948 1915.7616432604 1872.08498597987 1825.19553545022 1778.70758081998 1734.18642817631 1689.66527553248 1659.47818127493 1629.54295938214 1598.01106130723 1566.06979936187 1537.85217665279 1512.02389099356 1493.21579162111 1484.00965027216 1473.69793008797 1459.7980217897 1446.8860390706 1453.25358599048 1459.62113291034 1437.84715765726 1411.56591789005 1386.42643852361 1361.83632116237 1345.0244060722 1336.36173935065 1333.38279325959 1343.56819666399 1355.54128789852 1381.30471518055 1407.06814246269 1431.01413858119 1454.81904175246 1479.7303064098 1505.02794851268 1534.23103274278 1566.57357300079 1602.56476721036 1644.83380463029 1678.17590334215 1671.06198695644 1663.94807057073 1644.4760911089 1624.92916745894 1614.93396252255 1607.22056010521 1589.84817723398 1566.56524640132 1545.20142157416 1526.34468023055 1512.14996403118 1512.1844731465 1511.95347833515 1507.56179796141 1503.17011758765 1495.88536989573 1488.18046294077 1482.7230583077 1478.29253320982 1477.35784656052 1479.9247036759 1484.37671006955 1492.97035856046 1500.91063941958 1504.3187221291 1507.72680483861 1510.38129152561 1512.98699336514 1519.19566673843 1526.58999165552 1534.05993843372 1541.58796420327 1551.88758599203 1566.73224723031 1582.17415692002 1600.12932565651 1618.05521574095 1630.39336687689 1642.7315180128 1659.10526959885 1676.37441588247 1689.08215972138 1699.12952666452 1689.47288665673 1655.22367383853 1624.77353158487 1605.24811022372 1586.46658580207 1577.38547408788
1280.56347539597 1322.29937436896 1364.03527334194 1425.04299623346 1487.32957778921 1533.00564423835 1573.17356825481 1587.70511124363 1582.43260216387 1576.83481939908 1570.70037976187 1567.47117633663 1576.58087196503 1585.68127671578 1592.33508580377 1598.98889489178 1621.22248137971 1646.94612095407 1651.36772895316 1643.28871501527 1609.68778104772 1544.04797050965 1467.10601137047 1357.41924589584 1250.98402032779 1187.88378507325 1124.78354981871 1066.41161483227 1008.66620375424 1030.61059399713 1087.3290085788 1135.44239724932 1175.26844698256 1185.39834843229 1133.17351429273 1077.3451956133 998.586753394629 919.828311175957 960.472633082977 1007.53231636516 1022.38009035546 1027.17875954989 1041.76264541165 1063.5667833408 1076.17425781433 1074.31337225677 1074.23904519003 1081.23035654408 1088.97168607809 1145.88620646597 1202.80072685386 1332.79458716909 1477.94510071349 1542.03923726127 1560.82121598717 1526.65483047513 1428.97232624746 1342.0564520073 1284.5729116632 1237.96984184014 1314.75335671431 1391.53687158849 1429.42018846522 1462.70278570322 1471.50354277969 1470.17995048819 1459.98640898202 1441.62630808876 1408.13270759066 1344.44184337055 1292.31171112242 1307.23926630776 1322.16682149306 1331.0521054376 1339.68727435731 1387.12030796402 1445.91732291852 1472.76760135706 1477.10898083469 1493.93269494646 1529.49093626395 1558.56942277193 1563.71502509023 1570.00147694684 1618.5852303439 1667.16898374095 1681.15882647235 1688.53316965789 1724.78268210415 1776.3987123858 1819.90215492884 1854.10439044117 1877.31220050313 1872.11832132592 1869.12793770377 1887.81336271188 1906.49878771999 1936.04069779313 1966.7158943497 1988.07962954205 2005.79851306376 2031.61633914361 2064.56212093887 2082.91570753194 2073.57586785988 2054.04645411193 1980.33337530016 1906.62029648812 1863.56626145261 1821.41191876386 1797.50373374348 1778.60196756688 1726.52292110169 1652.13115256381 1606.18713589118 1600.99463036068 1606.49651118239 1648.98261047321 1689.90844321017 1690.79198277677 1691.67552234337 1666.47090772016 1636.68799476469 1648.47079571497 1681.29541641294 1721.61828328419 1770.15881866278 1812.13161969706 1838.04930460747 1864.15857490727 1891.92702769399 1919.6954804806 1972.68037545004 2027.95609711288 2044.62377144122 2047.00608691965 2024.20288146329 1980.2136342433 1935.26547977697 1888.58514313241 1839.78928621317 1780.63016161318 1721.47103701296 1690.82566886365 1660.68133308577 1628.44099835412 1595.6632808684 1563.67948614184 1532.20512558513 1512.78502206218 1509.85229726594 1503.54825976912 1486.30252930938 1470.22820090225 1477.01397559231 1483.79975028235 1459.56008158528 1430.35124742679 1403.41363870322 1377.56883803143 1357.25557361243 1342.73771810832 1332.7054577501 1333.06250855521 1334.84728784925 1347.64565425565 1360.44402066211 1378.02262965312 1395.97234404183 1422.157834855 1451.21952688951 1487.54849575614 1529.71938861342 1569.00554743947 1603.32825722593 1629.21544704274 1616.87368352975 1604.53192001676 1591.88758946116 1579.24142401921 1583.40500892141 1591.58426177103 1581.67211753434 1560.68943943769 1539.99385162593 1519.67331308667 1504.27282765874 1503.88910900388 1503.46567206472 1502.41981385242 1501.37395564013 1493.78311840424 1485.24175590891 1480.23969848337 1476.85474281093 1476.12985205081 1478.06936751092 1484.18337333891 1499.46866615275 1512.9412881876 1513.84000427602 1514.73872036444 1518.8118351758 1523.09044809606 1533.17476161924 1545.16959200834 1554.75625153377 1562.49339118842 1573.00212686226 1588.05590198564 1605.51376334647 1633.08817079717 1660.55481929462 1667.45600941819 1674.35719954174 1688.54568702589 1704.35103611386 1711.36842288393 1713.26034830849 1702.51763853807 1676.00563946824 1650.86468633688 1629.66635389499 1609.07787098696 1596.44182322623
1253.76860168375 1306.60245818059 1359.43631467744 1422.00235320548 1485.21420944972 1531.56418597551 1572.32266611627 1578.70026223478 1558.51869555233 1546.42374122397 1547.6705857983 1550.73728868144 1561.53315584796 1572.30179507883 1575.90041746765 1579.49903985649 1602.30304929825 1629.40929096321 1622.70140134202 1596.15044323975 1545.75943965122 1465.44089636818 1379.69477335031 1278.22375999877 1178.47146207881 1101.62539281089 1024.77932354297 977.049600798943 933.17794251428 948.949623201738 990.747707352167 1022.01220869271 1043.13201414613 1049.86201919574 1026.3769205627 1004.06506156934 989.21890128544 974.372741001544 1054.11129953676 1138.93177687224 1171.34664235985 1187.4126015911 1206.97834516399 1229.12648685709 1236.24358860973 1219.7135819791 1210.78800389542 1231.93708767443 1253.37855534565 1293.98949026738 1334.60042518911 1427.56319876403 1531.38374233476 1599.14703475909 1646.75359288208 1628.08214201791 1529.90451664479 1442.76947584996 1385.82113569967 1335.46628648923 1359.88286621065 1384.29944593207 1424.12426839032 1465.77142103193 1497.04408337954 1524.02642426604 1533.24152928964 1526.09834597264 1505.30861912337 1457.28868877201 1416.53059660426 1417.89458427442 1419.25857194459 1397.66647123764 1375.1241214628 1427.53145358974 1501.89171518909 1536.93231074099 1544.26921925754 1562.31463806034 1596.43228078364 1625.14899778144 1633.91747079393 1643.45071838975 1681.33818805835 1719.22565772695 1727.73879494338 1730.63458855055 1760.82833010685 1805.54923859478 1846.83110136642 1884.17004515512 1910.29907112753 1907.4697305485 1906.27193956145 1921.12371883361 1935.97549810576 1951.54628642478 1967.19213064172 1989.52663850702 2014.47933764427 2044.34566263282 2078.53651606672 2093.52730648174 2072.07974597489 2043.44656518166 1976.60342193334 1909.76027868477 1854.53009031951 1799.6406851407 1768.74709704016 1744.43753133909 1699.00116653481 1639.35639186167 1615.26421111188 1642.10125437463 1677.03078096745 1739.94640807929 1800.57725176567 1802.57198130441 1804.56671084316 1754.29007806502 1694.84016728571 1675.82573212687 1677.2809559602 1707.72432714113 1769.93712547108 1823.32807761422 1855.15363786865 1885.09783943017 1898.74895410837 1912.40006878651 1939.26960793832 1967.33999530691 2000.67777472251 2035.96454122214 2035.57604241905 2005.17753657332 1970.09577970889 1926.5541389695 1880.27891770097 1820.61274618267 1760.94657466414 1725.51442879349 1690.50811356921 1658.11863475739 1626.40007362665 1592.33577566975 1556.76629540269 1533.99106085176 1528.71533490213 1520.19740482371 1501.15680738962 1483.5550889578 1494.03333014637 1504.51157133491 1479.8921447255 1449.65132807108 1420.71694873201 1392.41116627082 1371.00900054072 1356.83977700248 1345.12656083576 1339.10182612405 1334.28329179672 1338.76946288882 1343.25563398094 1353.52274040373 1364.23863917692 1384.57218347889 1408.26452267655 1442.1083097182 1484.11251063565 1523.60289331086 1558.76802152411 1585.77098636616 1575.78382330728 1565.79666024841 1559.16923645452 1552.56218744995 1556.94760651625 1563.95900757465 1556.63417325381 1540.53667320499 1524.51389123599 1508.58871954127 1496.77843948478 1497.52744824684 1498.24544578255 1498.47746948224 1498.70949318193 1491.00175006378 1482.14091709046 1480.00374273884 1480.93859522018 1483.52555123137 1487.76730705629 1495.07697881981 1509.12681166692 1521.81142657728 1525.02596996004 1528.2405133428 1534.18747938398 1540.31133173909 1547.96060033727 1556.11184684636 1566.48642271578 1578.56855675446 1592.90005269824 1610.92019537266 1631.06667005805 1660.16088357918 1689.18293685885 1704.43343429986 1719.68393174082 1742.51166510279 1767.02058988836 1778.07961004382 1781.29415342659 1765.75875486479 1726.821552111 1689.89542844431 1658.7524239238 1628.33070359697 1607.31452587426
1238.74172920224 1295.75786340092 1352.77399759959 1413.63928884068 1474.76000623402 1521.06034943132 1562.44617122736 1560.60283852192 1525.36507211288 1508.23612218229 1520.98423043664 1533.00160202465 1541.91544422534 1550.80680508961 1553.77808582316 1556.74936655671 1581.83036599502 1611.86420205127 1592.92908127302 1545.25762077661 1476.06409342151 1379.8528948715 1285.29686678719 1195.53623100076 1105.31961811724 1009.02595753581 912.732296954376 881.376537823584 858.625381933052 873.243022724776 904.167184850464 919.12507601378 918.706151302771 920.627841109348 927.464255814532 941.494583780085 1001.30208047387 1061.10957716765 1183.35267522037 1308.95036014863 1362.53753755472 1393.65969651255 1415.28627530823 1429.90631713809 1425.91963691786 1392.66051947991 1373.20975330225 1408.36946738237 1443.28435017216 1462.14744104437 1481.01053191658 1526.59281637822 1577.71666090597 1643.35086790583 1717.09666166526 1715.53282926074 1623.62862044036 1543.83114264788 1497.12938286705 1450.63256203246 1406.45978744398 1362.28701285549 1402.33763450429 1452.34934254953 1506.48426410571 1562.3243211348 1592.99372345942 1600.48851209875 1598.52546879836 1577.69034350891 1557.75182435875 1543.01404287689 1528.2762613951 1473.91583784249 1417.91526645301 1472.44715609013 1559.35425079495 1602.5252729465 1614.88091470524 1635.18573835831 1667.42135611579 1695.85999449708 1710.27454240702 1724.86620820576 1746.02456706707 1767.18292592837 1768.97296359299 1767.05913784308 1789.71361783236 1825.44262926137 1863.382964479 1903.85861654408 1934.23315692079 1938.51368843485 1943.53814109138 1955.88055374243 1968.22296639349 1967.08327240779 1964.5362086218 1987.16301877131 2019.64381777186 2054.14641041083 2090.42840269563 2100.87139398954 2062.27649490522 2020.60042794225 1962.54006786774 1904.47970779302 1832.23195273982 1759.56786732826 1721.72956635186 1693.44683683405 1659.54083823019 1621.85302149163 1625.21965603722 1687.39694588044 1755.04006287351 1841.58555900065 1924.90515633918 1925.43608868229 1925.96702102539 1850.92240284019 1762.61477591831 1710.02231554087 1675.50995113846 1696.42496249868 1778.08535214205 1848.43483780621 1891.13432008539 1929.09506870795 1926.01707257885 1922.93907644977 1910.45905601114 1897.12489413161 1943.24417831774 2011.36182477668 2035.17251921269 2021.71223805938 1998.87439453257 1959.09680372482 1916.37292679575 1859.21612189853 1802.0593170011 1760.91642293147 1720.05491892462 1687.6356836662 1657.38091973109 1621.59594453819 1582.26241433948 1555.54649579561 1546.08849214417 1534.02860045631 1513.52420582658 1494.74409804667 1509.61373082216 1524.48336359759 1499.92944675386 1469.06128844417 1438.08773615714 1407.06347318977 1385.08737178913 1372.59105933162 1360.34368098451 1348.67287137534 1338.01628383524 1335.18346894916 1332.35065406308 1335.10472527979 1338.2925241897 1351.25295590964 1367.62630912913 1396.9333182242 1436.63726640565 1475.67211765765 1513.55572637709 1543.5039803738 1537.48998113166 1531.47598188952 1530.69240233136 1529.94054210935 1531.57278686143 1533.77456856272 1527.99685973073 1517.33632069429 1506.84116727768 1496.56207048043 1489.36575345309 1491.57855941079 1493.72272320174 1494.7912024418 1495.85968168185 1488.07541617771 1479.00546931929 1480.24752204892 1486.20110777244 1492.76208010547 1499.93143032167 1508.33722360478 1519.4594620606 1530.00691654367 1536.56728208789 1543.12764763211 1551.04563767385 1559.05151499479 1562.91864809521 1565.42381970684 1576.30266456871 1593.61264573468 1612.53827762639 1634.11335634734 1657.09203196487 1685.97713160091 1714.85002122557 1741.39266846151 1767.93531569735 1801.71291496893 1837.09576177924 1854.27382410209 1860.83418964632 1839.71488050168 1784.04856694059 1731.68827893385 1688.83489684821 1646.86663467432 1616.44033212251
1220.31361057159 1270.58417705671 1320.85474354183 1385.83786506329 1451.79729679594 1488.26458722173 1514.95211381003 1507.23084266265 1472.92884542761 1459.41526324231 1480.19970858154 1497.90600619816 1502.53902809794 1507.12053648244 1498.13683092288 1489.15312536329 1517.37766497037 1553.93728842052 1533.17574522877 1478.7765543487 1399.20527801753 1288.03428905313 1182.38686703009 1092.74243135585 1005.13664060098 944.700947820524 884.265255040068 886.462642019094 896.959231605517 924.591239388466 959.700583537438 971.645923629752 961.282446207263 962.810248231777 989.306863674768 1024.81917086381 1117.70120539367 1210.58323992353 1330.46350547707 1451.79435226153 1498.27007269732 1521.39334288341 1537.362389693 1548.05252466222 1545.77883585818 1523.1102211514 1512.81543105638 1551.45772924472 1589.61629676007 1596.06019210813 1602.50408745619 1616.65701320829 1632.40879166874 1685.20082119526 1758.69910190516 1770.39451814778 1707.95208078589 1649.04335393491 1599.7945994031 1549.34074692251 1485.22085676338 1421.10096660425 1435.4179789083 1459.01170999856 1517.25364076083 1589.82417084954 1637.03659485354 1660.90181874672 1673.66967026199 1664.29391394883 1651.38959953842 1618.01798716199 1584.64637478569 1535.80774879212 1486.32887803947 1533.69520908822 1609.42771636269 1654.12950732239 1676.96780503102 1698.44156470816 1717.86731208445 1733.56675545301 1735.50314683982 1737.59251198817 1745.35342022982 1753.11432847147 1754.42161584267 1754.4947575184 1771.79668486205 1798.26726641715 1829.80571632977 1867.15455551849 1897.33345645636 1908.99039287852 1921.05700232009 1937.15356950277 1953.25013668545 1957.95392062596 1961.46843500289 1985.55999588762 2017.70617670867 2045.65085268317 2069.89774462345 2075.64718096319 2046.29169198731 2014.54216183535 1970.06217560479 1925.58218937407 1853.80224210267 1781.22117506399 1747.91688530672 1725.38943972001 1690.27262939841 1646.68909142595 1647.30607722875 1711.24047896119 1783.75328986789 1885.93267056002 1984.18994089642 1981.79114556134 1979.39235022625 1898.06704442022 1802.89065859404 1737.29350165764 1686.67024373775 1699.66528128656 1782.38249800775 1857.52870259403 1914.16723427056 1965.29274750356 1968.67399547298 1972.05524344239 1932.05240569372 1888.10827357402 1931.63692243852 2007.53136424587 2043.94988817505 2047.16129889911 2033.59411162446 1989.71785270558 1942.79556488178 1880.95174060043 1819.10791631884 1785.0955544992 1751.57223605276 1716.83020725127 1681.77571935909 1644.41956687394 1605.58651178374 1576.21140066539 1559.77252475457 1544.04021196043 1530.60107021536 1518.27517582323 1527.67448603029 1537.07379623731 1512.71724092093 1482.95420425353 1453.38346246664 1423.90524403323 1400.86882515103 1384.58150106656 1369.22950807915 1356.04388220517 1343.81813940496 1338.99699484089 1334.17585027681 1332.27422586185 1330.59925305857 1337.17277622259 1346.62694268643 1368.84184592547 1401.31468429325 1434.62025659924 1469.35862389466 1498.17114361878 1500.1283004185 1502.08545721822 1506.11011636576 1510.14731366625 1510.43434605006 1509.82550450682 1505.27900493302 1498.32296361138 1494.51205604132 1494.80989121921 1494.62603501999 1492.97198187315 1491.22764352686 1488.06845482211 1484.90926611735 1483.1555418481 1481.60593273986 1486.91326602727 1495.35352325038 1503.62276566012 1511.72071415501 1520.76597952384 1531.8924845535 1542.41186997198 1548.71986467503 1555.02785937808 1565.9497408285 1577.1703071903 1582.69903746952 1586.35472096642 1598.35357837805 1616.76014803865 1636.75444494045 1659.35239796536 1684.2944639013 1719.10070439746 1753.94496001357 1796.04428208456 1838.14360415538 1882.44570355464 1927.23654190712 1941.57628336593 1938.15583032115 1903.34257204114 1829.34795078273 1761.67358861769 1712.17395245212 1663.96056972737 1632.51992601925
1199.94970072467 1237.25520633414 1274.5607119436 1346.97325921713 1421.7154741236 1442.78155922675 1446.04833068483 1433.78261476288 1409.51808401224 1404.5425834423 1431.39133144917 1452.93016113018 1451.91710813249 1450.80428452748 1423.41855707996 1396.03282963234 1427.89409929753 1473.02739203643 1456.35896101477 1403.42356733034 1318.26943316675 1192.66958613103 1074.63227957925 978.505313467192 889.569116184607 896.468094403629 903.367072622651 948.894995856345 999.541451380126 1048.25165817259 1096.11694931213 1112.61594251775 1098.9066429338 1102.55299218648 1142.6420101604 1191.17873180295 1293.47089116193 1395.7630505209 1487.74458854279 1579.1721497592 1602.43893924744 1604.44170703928 1610.36037677268 1619.16848677608 1625.90235033994 1629.37297126961 1639.4355296564 1675.56846122365 1711.14854671432 1710.48256996927 1709.81659322422 1701.61861468313 1691.85849916245 1725.71108316229 1783.94405026051 1806.70844718581 1786.92524238253 1756.61781341371 1697.54070628263 1638.68194514827 1582.29926873751 1525.91659232675 1499.7254118489 1477.1049743341 1528.77951832507 1611.17840101307 1672.13863465012 1713.36031100581 1738.52797293254 1731.66158324048 1717.94564481936 1664.49909947418 1611.05255412919 1589.52823217517 1569.32530533534 1604.2386847778 1655.29575361151 1697.77217253493 1734.20287277451 1756.22493712984 1756.62132096283 1752.48942761343 1731.63240552535 1711.22493160531 1707.48457616695 1703.74422072859 1708.12040116022 1714.04873161849 1727.2426536785 1744.3031104045 1767.69789761842 1798.35509248421 1825.81070787285 1844.9957441583 1864.57115719251 1887.98671035339 1911.40226351428 1934.78592597985 1958.16625944044 1984.38986043418 2011.72642189813 2026.7421034563 2030.9140624279 2031.88698808223 2026.78870977693 2018.03857423511 1989.86947104163 1961.70036784805 1900.33988514139 1838.00539847218 1815.76814115689 1804.53284536508 1760.95368691334 1695.62230489139 1676.29674359121 1722.87469286104 1784.41007345683 1897.6724900588 2006.45596971517 2000.29312444844 1994.1302791817 1917.04617893651 1827.5158680078 1760.62315497478 1705.19027769779 1711.18074107769 1784.48783296981 1857.50895992444 1929.83103298284 1997.05137641823 2020.08932958623 2043.12728275413 1982.33272060037 1913.92226392496 1946.11135061575 2015.52326198528 2057.95248625578 2077.68389390207 2071.69515811195 2019.24522990433 1963.71382185977 1893.08721440462 1822.4606069492 1802.88728632245 1784.21105371752 1745.84116820635 1702.42212491052 1663.57988179408 1627.67442109516 1596.36946768242 1571.35692248289 1551.87793863494 1550.35828834009 1548.83064028278 1547.14691458001 1545.46318887725 1521.37903743179 1493.7071396153 1467.49818484274 1441.99313022605 1417.61957366283 1394.43149137033 1374.51193190808 1362.16276157447 1350.79747160403 1347.02189646542 1343.24632132679 1338.31523255166 1333.29443758693 1334.04234208918 1336.80486423011 1350.47331779181 1372.90868967522 1397.48347309338 1425.73930995096 1451.09341455047 1463.29715171966 1475.50088888885 1483.74438038911 1491.96385539142 1491.70700534549 1489.42525272152 1485.93016128668 1481.69260047123 1485.22421794905 1498.9053417728 1507.09903165807 1498.54422030322 1489.88658010212 1479.61751930428 1469.34845850641 1477.10106040375 1487.47094274571 1497.23401827335 1506.71984492191 1515.40782660489 1523.2966612147 1532.72150040719 1545.52091651758 1557.2126048396 1561.22034680665 1565.2280887737 1579.74170960629 1594.93543978483 1605.22402283404 1613.89843957314 1627.36775490585 1644.51964125591 1663.57611043684 1685.75583569156 1712.16681554495 1756.38318087023 1800.68225148697 1860.7653676758 1920.8484838644 1975.43298996199 2028.79749760321 2035.20090884603 2014.21488945355 1961.09192043058 1867.85882174378 1784.93873375767 1731.67504766046 1680.23380462669 1652.55721085022
1184.24313182179 1219.51129401849 1254.77945621518 1318.33976001938 1383.77750160941 1396.96481805931 1392.82559273795 1390.4357548053 1389.39731506323 1397.40304915436 1420.33042697487 1436.82923542288 1426.02511124869 1415.09149141622 1370.05737776784 1325.02326411929 1343.7271781045 1376.70915873701 1357.41936066316 1307.45503554855 1221.77571212468 1091.26165756724 975.932900542134 904.599285006688 842.584031327343 904.759509552301 966.934987777259 1046.23074743793 1127.79503173218 1189.53193426179 1242.61681552093 1262.08362447491 1249.17349900852 1254.34241063498 1297.47293152049 1346.79439314631 1435.51078887797 1524.22718460963 1589.64119331156 1653.80319386477 1664.32540220272 1658.11367874183 1658.86538468531 1664.75522065315 1674.73775086515 1691.15898290708 1710.02533428341 1738.56185834168 1766.70286488338 1768.91268889924 1771.12251291509 1755.39670288421 1735.9510428114 1754.54502048999 1794.40392676724 1819.26108442708 1826.12235383164 1817.40897149824 1766.11974595371 1714.30426670391 1656.5209713355 1598.73767596708 1557.01818093375 1517.19854876699 1560.33117077509 1637.76830570313 1695.3319950188 1734.59820935525 1759.1122762313 1754.19002639501 1742.17252288673 1688.99920812436 1635.82589336218 1635.27835572758 1636.90922039049 1661.54538376176 1692.91985058171 1727.66326388572 1764.78035551473 1780.660011914 1764.66475710853 1745.54709714279 1714.89687718218 1685.00267645273 1683.13809078029 1681.27350510785 1692.05226545797 1705.24885161208 1715.62486667502 1724.49985656344 1741.94115653596 1769.20386320987 1796.39206912579 1823.38781865718 1850.22438506845 1875.4950654761 1900.76574588374 1927.9824115408 1955.40221465606 1972.12909202587 1984.67036127868 1987.94497772315 1983.06392564979 1985.60101212765 2002.21642404898 2014.8317658573 2006.17649737105 1997.52122888476 1951.15594490293 1903.68405718664 1880.12786522571 1863.13371180831 1814.93759509681 1745.75721659389 1715.51938913553 1741.06691196817 1785.66882566995 1896.16622243138 2002.14368146942 1992.12258181015 1982.10148215088 1910.68704981835 1828.49849408306 1769.44854637458 1722.11206088201 1729.28462630979 1796.19613612121 1866.00439453195 1942.89388258754 2015.45374404456 2050.51784107929 2085.58193811388 2014.84592484657 1934.49833691342 1964.57648427411 2035.5132443812 2079.73217802474 2101.47609561666 2093.8284332647 2033.087449151 1972.10420932348 1909.93423503676 1847.76426074982 1833.85505776817 1820.7938738378 1778.93666522482 1729.69658696929 1685.31268147327 1644.04482260757 1608.76647630464 1581.68036961757 1562.84685813998 1570.79738331229 1577.76560777876 1565.56407293147 1553.36253808424 1527.19284434952 1498.78595155733 1472.92184369618 1448.28120568696 1424.89034671319 1402.80888538807 1385.39168187191 1378.77759904477 1372.15519515712 1365.46860208672 1358.78200901629 1349.66224227298 1340.35358053792 1337.19647349668 1336.18768960219 1342.50665237998 1354.71614885724 1370.61411970101 1392.85844842519 1414.93566199673 1436.25552600474 1457.57539001276 1467.40907455274 1477.17310235205 1474.4950395272 1468.84469552654 1466.63392782595 1466.52791442998 1474.28131289569 1492.30209712014 1502.89843927039 1490.83423029945 1479.10106458261 1472.55564469366 1466.01022480469 1484.8897544932 1507.46174166801 1521.70452889267 1532.1417205058 1539.50700310386 1543.79536323664 1551.15134909466 1565.24685844223 1578.12572578542 1582.56514438219 1587.00456297895 1602.8871506937 1619.51052424503 1633.7874312003 1647.29217225981 1661.777124055 1677.0148958683 1695.97289086677 1721.03154448235 1750.20080466067 1796.66775578765 1843.18206287764 1898.73410703234 1954.28615118684 2004.50222901395 2053.53439480241 2051.23370726455 2018.99382040382 1959.5298840089 1866.08760899286 1783.32937154622 1731.29447194437 1681.1418147943 1655.5335906535
1174.21752920402 1220.77784119562 1267.33815318721 1302.18603686276 1336.25669568924 1350.74101773432 1358.73039774822 1383.8061673148 1422.08113796987 1448.48780928525 1455.31341795377 1455.9495755287 1430.29836551304 1404.51053994027 1342.74731548469 1280.98409102887 1266.04543341095 1261.59602861214 1231.49462563536 1186.33991987782 1106.30468811699 982.482277882468 888.278951573715 879.888615450598 879.254949233274 981.998521165916 1084.74209309856 1186.14122743249 1287.36221692521 1352.30469211244 1401.41640955486 1421.91664965615 1414.86171297231 1420.82621209462 1454.12838038087 1489.30478001901 1536.40751261752 1583.51024521604 1623.98050354194 1664.09440730971 1674.63631761686 1675.95269401926 1677.49416267591 1679.20172094195 1685.40830096459 1698.69282473014 1712.27008648059 1727.00509412286 1741.77812632571 1759.04415006813 1776.31017381056 1771.13753126529 1761.31110990666 1769.13632293075 1786.82915738835 1802.82999485743 1816.80113635508 1821.13444314945 1799.12116151757 1773.19247392927 1702.86234545541 1632.53221698155 1605.75455070297 1584.12782653908 1616.31001318718 1670.74462075523 1703.999297033 1717.75361738847 1725.69170834738 1722.02414182164 1714.76681173525 1686.68716318377 1658.6075146324 1671.30633395668 1685.69314561014 1702.7060279278 1720.48809221685 1740.78035728054 1762.84124918298 1764.41724996259 1735.2478203964 1707.05495967374 1682.46904238074 1658.95768720009 1675.28600953055 1691.61433186101 1712.86206170105 1735.05054491404 1744.18229874873 1746.36564431424 1760.52500569957 1788.41505402875 1818.3314974213 1853.48268847123 1887.27832762125 1907.7393886718 1928.20044972235 1941.1400855666 1953.29457507023 1946.34010812856 1931.90568620461 1924.88825885429 1924.39859836782 1936.23411754233 1971.46066523674 2003.44845253894 2018.21393918281 2032.97942582673 2007.19076391944 1980.21203694205 1940.22866245795 1896.67704563408 1848.55452917447 1797.35794478935 1767.22287502627 1767.25850387779 1787.66185168859 1878.50254325149 1965.41149419296 1951.41723071696 1937.42296724096 1873.42062334766 1800.64219244146 1760.58182033389 1737.0843177417 1755.42499056533 1819.61801987058 1884.88653597577 1952.78412697245 2017.56431105212 2055.34688859303 2093.1294661338 2025.68702952817 1948.68526375648 1987.90943061018 2070.13834051217 2110.99827149145 2117.05864770154 2096.4844204777 2027.79710873055 1965.21325810283 1932.5283416138 1899.84342512466 1880.89479769657 1862.18753886874 1817.01442829269 1765.05586953098 1710.18336591557 1653.44107955312 1611.69664287959 1590.46572497505 1577.63516753209 1592.06822314223 1604.72391332834 1582.69402588179 1560.66413843532 1529.53270915021 1496.94353865621 1467.74425186884 1440.17601946835 1420.59756415815 1409.39002485777 1403.09898031046 1408.19527504841 1411.05150081037 1396.62769399162 1382.20388717282 1367.4814481879 1352.73582544048 1348.0164394186 1346.79854163902 1347.22804913384 1348.98185135655 1356.26884925857 1373.07621697037 1392.0979603387 1421.15503809508 1450.21211585145 1458.42961204485 1466.52072876342 1459.13150905901 1448.04420404597 1447.40186761223 1453.1510429988 1461.31957784503 1472.64871774656 1478.35961134347 1466.9227440278 1456.79532441649 1467.18812921986 1477.58093402327 1509.56418111345 1544.68300139371 1563.43473795924 1574.70838511273 1578.62678387771 1575.17793026214 1577.4785019339 1592.41046682184 1606.49465888858 1614.69812741698 1622.90159594538 1637.44184042268 1652.39230289329 1669.71643248746 1687.82167901897 1702.76748174488 1715.28677305199 1735.17012682557 1767.12953864911 1800.6298321842 1840.61425287335 1880.51304901515 1904.07066875097 1927.62828848669 1955.60503262627 1984.56226544601 1972.62096462639 1936.82614171911 1885.62056155394 1815.18081389788 1751.37839610112 1706.66248247746 1663.30751583912 1637.69929169832
1162.49150407358 1216.37370483273 1270.25590559189 1281.7290923013 1290.38805990519 1311.3379788149 1336.36364793402 1383.26639912682 1447.06915161185 1484.39643289332 1478.04282566606 1464.60390362221 1421.07276948026 1377.43524106233 1305.78057756883 1234.12591407506 1191.66154635856 1155.73614766941 1114.31500177916 1069.66879926574 998.311445918731 893.422318174851 828.100766396141 877.415170829928 932.41267467231 1063.15184705939 1193.89101944646 1308.95974831131 1421.95206346211 1484.63331813483 1525.36047061901 1543.69060114344 1540.45058021421 1546.14880500089 1570.61518594469 1593.74743300047 1608.39015983442 1623.03288666837 1642.47996764516 1662.18518056919 1671.63676802256 1677.88954611761 1680.77033724704 1681.16302855324 1686.07534001099 1698.09800098532 1708.31666315876 1711.4007124415 1714.86188733252 1743.04842223136 1771.2349571302 1774.44362335286 1772.47188025183 1771.83131575191 1771.93490707412 1780.77326095632 1800.08971409046 1814.74516366649 1816.65900206325 1812.61777861992 1741.04503246571 1669.4722863115 1654.73922217815 1646.72857733285 1666.426286173 1697.58265380968 1708.14743789908 1699.75355764391 1693.54050121044 1691.67904313794 1689.70087708833 1687.04574983341 1684.3906225785 1704.20667299351 1724.95289998236 1729.8652277312 1730.13977097623 1736.56237733936 1747.3167604855 1739.86019248903 1705.07111261693 1674.52341555706 1659.64120687343 1645.97831315671 1677.52184771958 1709.06538228245 1738.49874006927 1767.52856228468 1777.00843594699 1776.08440061707 1786.58993210311 1810.19963831762 1836.89019471685 1871.53945254512 1904.42548412307 1919.96664078797 1935.50779745287 1936.10726414889 1935.14699809735 1912.60622991456 1881.61805201064 1870.00847985672 1875.45420135667 1896.00090293434 1945.20661520328 1991.42862657943 2021.7846313273 2052.14063607529 2046.86607935213 2040.54594065649 1989.88264132461 1927.05237297768 1879.68836498122 1842.72588374366 1813.8177233799 1796.44740784779 1799.44707274412 1872.89190219347 1942.85255933881 1923.39628416081 1903.94000898281 1844.68815309442 1778.45243627534 1755.42946950914 1754.28210193213 1783.3017814583 1845.38289791433 1907.40661149134 1969.2900011996 2028.38914529278 2063.37595191299 2098.36275853307 2033.60301684339 1959.78164569036 2004.44442911387 2092.94752001232 2133.54672290901 2133.84921030564 2108.60392661194 2037.20882608687 1976.25302498466 1966.43606458114 1956.61910417759 1929.9156524668 1902.91547805659 1847.65398164287 1785.1467053488 1720.92371996737 1655.59982039177 1614.21224106375 1605.56389868252 1602.5672747988 1617.91346690561 1631.17104916026 1603.66906774167 1576.16708632318 1539.9623674373 1502.36378152743 1471.83161549693 1444.69948207556 1430.43902578228 1429.66426839251 1432.24573902279 1442.60073715638 1449.19898143072 1426.81739080654 1404.43580018228 1386.55096009663 1369.01521702174 1362.51952487814 1359.87937789956 1355.07100731743 1348.51967334208 1348.27202188182 1358.87043338148 1373.86534949941 1408.78479551902 1443.70424153862 1450.45867848729 1457.04231166794 1446.30912294202 1431.43913234467 1430.05124020365 1436.91334814565 1444.19761248535 1452.03337389156 1456.54697972172 1450.9208504026 1446.97395448045 1469.34215769199 1491.7103609036 1530.10110839058 1570.81880497844 1592.16548561042 1604.66158590416 1608.16378101911 1602.65739262486 1604.28860701195 1621.60101783979 1638.43452502961 1651.94603388917 1665.45754274874 1677.29920317023 1689.03276416057 1703.91863674568 1719.84185949412 1731.77200494707 1740.63539300542 1759.8173657707 1795.92041008879 1831.29107281748 1863.57982775488 1895.70401444511 1896.4208671306 1897.13771981609 1904.67268542115 1913.72041281494 1894.95092864353 1859.95742831694 1817.83435956865 1766.81287584516 1719.2926071313 1681.84053697158 1645.50697301598 1623.75872487401
1146.01748388485 1196.13563471238 1246.2537855399 1249.25650232666 1249.13268675676 1290.98017201099 1346.74558223846 1399.73089413758 1450.56858574697 1477.92957589081 1466.55723542138 1444.0345693937 1374.15508573026 1304.30369476867 1241.85004221913 1179.39638966936 1126.48608348754 1075.71359895692 1021.5538646928 965.406398499432 911.19799731015 859.423796379423 844.64162588639 937.033490648881 1031.60559437103 1155.234894665 1278.86419495898 1384.05334387559 1486.79907865698 1531.95449077401 1551.9793686342 1559.19432127426 1554.07227537921 1556.53924819029 1574.94132646646 1591.89567323912 1599.63764186507 1607.37961049101 1616.75071178233 1626.2093443369 1631.47114845841 1635.42367381746 1641.17829252256 1648.26262815165 1658.81013239994 1674.805957191 1687.05641961101 1684.4943939963 1682.384892612 1709.94408585556 1737.50327909913 1743.02889397789 1743.98474526812 1741.30890591842 1736.60287788354 1743.00835377095 1762.74303467527 1780.11302804432 1791.01876349997 1797.69790476369 1756.44667194765 1715.19543913161 1704.41721267462 1697.24302336967 1700.17283312996 1707.28110398119 1699.6769768358 1678.52714959014 1664.93365937647 1666.41802346542 1671.16817003559 1694.86139230211 1718.55461456854 1728.37387934194 1737.61884265077 1717.92897440551 1689.76402927819 1683.94063779024 1693.85856539602 1692.08759078555 1672.77293841016 1658.63530421745 1663.61891461741 1669.48132862863 1707.92562139949 1746.36991417036 1777.61325250888 1807.47953026466 1821.75384067171 1827.73056354978 1833.54385374236 1839.16976583903 1846.00906516818 1855.98288455574 1865.98803086266 1876.30134040029 1886.61464993791 1880.28213562465 1872.21199748002 1856.68826587885 1838.2469210804 1837.96071455726 1853.65301642663 1881.27115412626 1931.52243582065 1977.63150182975 2001.71409002491 2025.79667822016 2040.86166425046 2055.66202794899 2010.36655121948 1948.581852298 1903.88878380943 1870.69035250351 1846.14800772022 1834.00553931539 1838.57449451674 1900.93628805627 1959.86880768798 1930.79329379579 1901.7177799036 1839.78457339453 1772.08505937981 1760.64856168683 1777.69410211275 1816.02709972134 1877.68998840719 1940.08468766041 2004.26833010467 2063.54634249109 2080.3402411084 2097.13413972565 2033.3513618831 1962.24847123626 2001.9978965718 2082.76377372188 2131.75338805781 2154.01283338901 2147.1478894548 2087.6722803799 2037.35973717481 2031.93416835818 2026.50859954154 1984.46826384949 1941.78454805744 1857.5242363513 1762.60430786815 1692.20873961436 1637.54964817841 1615.57026302423 1638.28900340649 1655.82334379986 1656.53156395028 1656.19087426464 1635.38053716895 1614.57020007334 1572.98070542609 1528.06313353803 1501.78899812927 1484.48521730718 1479.74675006519 1488.17300361943 1493.33426541039 1490.93331655345 1485.25555962551 1454.30029971263 1423.34503979963 1409.11163178211 1396.17639417923 1387.30677985053 1379.85701351487 1371.63012759146 1362.7785408801 1358.00159843088 1360.2354545269 1368.49127722206 1404.03806489694 1439.58485257182 1445.30380413665 1450.84186789185 1440.5822326399 1426.54869758292 1417.95403280984 1412.68753541658 1415.45926778385 1428.73199020243 1442.3465541775 1457.00447171219 1472.01199608324 1492.49817432896 1512.98435257476 1539.08512673547 1566.00130690733 1584.59856129962 1599.39491432935 1610.94330524223 1619.23843326397 1632.44723272288 1656.45128787363 1680.34530856953 1703.47605614327 1726.60680371702 1731.96292439635 1736.16838552341 1733.29920185275 1728.10192220703 1727.30915019238 1729.89912169799 1743.83745857698 1776.38556684855 1806.75582330187 1827.96154232944 1849.07463338594 1852.50996657761 1855.94529976928 1848.05769995904 1837.65783603939 1819.91315994035 1797.88472048942 1767.14540577659 1725.53404688218 1686.8303858666 1656.48818779997 1627.80068556006 1620.69040937444
1127.88603431311 1173.3557039882 1218.82537366328 1216.57491720935 1211.15780164586 1273.16571105241 1357.53214689072 1415.37760256063 1452.73565512951 1468.97858835468 1450.38447687489 1417.26457399182 1322.45183076013 1227.78974364954 1172.80040073769 1117.81105782564 1056.37036262352 993.484488752053 929.968424734897 866.082547691845 831.823405051197 834.756107131161 870.846814063866 1003.00354221906 1133.8780536513 1247.66378535152 1361.44951705173 1454.49396024078 1544.79007688458 1572.99304388764 1574.10059013305 1571.11700955907 1564.19334153646 1563.32789626107 1575.18325484007 1585.6629136545 1587.38855529323 1589.11419693195 1589.67526558122 1590.1737631784 1591.89487456312 1593.99740308039 1602.68747867156 1616.23833067642 1631.93968238781 1651.02423977481 1664.90888045498 1658.22843386964 1652.0447456211 1678.42985790927 1704.81497019743 1712.57693645612 1716.47646270528 1712.45187378596 1703.99754385893 1708.46853342721 1728.44455585755 1748.14116793884 1767.07396639433 1783.45130166271 1770.8492031492 1758.24710463569 1750.06769382032 1742.41135350837 1729.10895447218 1713.47165451765 1689.3360319041 1657.37600635367 1637.89151405598 1643.30060074184 1654.66748967192 1700.5924361413 1746.51738261051 1746.42329282189 1744.4242815331 1702.77752064448 1649.51784521615 1633.20834146008 1642.93303623153 1647.27225923259 1643.52851775986 1645.57879828023 1669.02921837818 1693.01793073175 1736.963972325 1780.91001391825 1813.90073377363 1844.79643388158 1863.08208634486 1874.65704145122 1875.269660768 1863.31379293807 1851.02696133638 1837.88515734531 1826.45497649728 1831.86205026063 1837.26912402399 1825.46196799247 1811.85785338453 1804.30298652006 1799.11601980374 1809.68041049733 1834.10771937695 1867.38005600278 1917.43870341351 1962.52242854863 1981.15170914126 1999.78098973396 2033.03742186965 2066.72308905891 2028.21955034364 1969.9085865629 1928.92051851773 1899.58262054935 1879.41002486537 1872.36675904662 1878.21044276278 1928.62084973933 1975.67798925676 1936.67770586499 1897.67742247322 1834.31683692949 1766.68117964597 1767.05632857808 1801.86060168039 1849.20316989292 1910.28702513208 1972.90124121871 2039.25649185778 2098.52813134625 2096.45373811928 2094.37934489233 2032.84400730169 1965.90684824962 2001.8849901298 2075.94280986117 2132.12488660961 2173.2699014541 2182.80832682377 2135.25220919907 2095.50931844888 2094.04096589258 2092.57261333627 2034.46096350923 1975.35400022338 1863.96617864456 1739.17432766111 1664.83345769153 1622.86532591926 1620.21493475238 1671.34193345046 1707.42183911363 1694.66596874616 1681.79898960238 1666.76370447351 1651.72841934469 1605.83348244339 1554.99593396275 1533.18459201655 1525.33931073777 1529.30535978681 1545.646178873 1552.6826865445 1538.16901340304 1520.95628196681 1482.92284555674 1444.88940914652 1433.71382969103 1424.62331088056 1413.04112842898 1400.58877592443 1388.7325788531 1377.35561145863 1367.97792795884 1362.040195463 1363.48827249108 1398.40811754446 1433.32796259785 1438.24362270118 1442.97732554569 1433.36755314724 1420.33127930714 1405.52863305222 1389.64510368285 1388.78837871312 1407.56238441468 1429.94142055283 1463.32356987923 1495.83952098769 1514.78136618826 1533.72321138891 1548.46144072576 1562.58918024361 1578.44566822912 1595.09201810062 1614.01943825638 1635.23165147334 1659.34486136771 1689.83151346193 1720.50608646336 1752.48420550406 1784.46232454476 1782.86309558113 1779.09020095067 1759.22561091198 1734.0656297429 1721.52583616515 1718.67858063587 1727.75261323531 1756.37593240437 1781.59823883682 1792.50886976943 1803.39328089964 1809.27372494744 1815.15416899521 1793.01829769493 1764.66633525334 1748.32471548815 1738.98796726283 1719.05861265941 1685.9086251027 1655.2304859731 1631.66046807892 1610.29164369357 1617.62637265252
1089.85857738844 1120.06293345187 1150.26728951529 1181.38452602353 1212.56234035093 1285.88191894759 1373.17594917717 1421.20748974828 1438.90883711856 1430.2077606072 1377.94631362773 1316.06099996284 1213.30192909767 1110.672945757 1042.30031419936 973.927682641473 926.951114043282 884.767514795877 852.496212740738 826.041721128869 845.34709516803 922.096998685309 1013.06391598878 1145.22064414398 1273.11772419475 1344.24422333629 1415.37072247782 1469.07958253446 1520.48051655144 1538.61417918511 1542.23109205162 1540.05250534502 1532.29238178204 1526.88010668939 1526.39774604801 1526.84003735562 1533.16618446636 1539.49233157709 1546.43996777946 1553.42099581446 1559.39318609685 1565.05065066067 1577.4159897475 1594.73089168399 1609.80795619254 1621.36441371625 1632.11012434392 1639.64942194478 1647.35560891069 1666.00350745047 1684.65140599024 1693.68222298242 1700.71845750795 1703.58626169606 1704.12382882797 1712.64309342159 1730.73709088611 1748.10361633857 1763.48147874752 1777.28673212222 1773.25830289744 1769.22987367267 1747.37140587821 1723.40418252918 1700.30007359277 1677.55290154514 1656.54154464887 1637.12835220387 1629.63219813266 1645.91520684328 1662.55953358526 1681.29967499279 1700.03981640025 1691.03389005717 1680.87943724981 1649.03036431014 1610.82688860837 1605.15717807304 1622.40997270778 1637.95640009471 1650.94176942928 1666.51326805831 1691.636599237 1716.95771131557 1749.6116031139 1782.26549491222 1816.25214897065 1850.49367124006 1863.39029079307 1864.92777941505 1854.23647011702 1829.52465529652 1806.81620539469 1789.28300981671 1773.77017771203 1778.13168204992 1782.49318638782 1782.70548735979 1782.48466139768 1794.32453367896 1810.88541101216 1826.62522268915 1841.6424067397 1863.55623456638 1898.55868225055 1931.66454696491 1954.68521914445 1977.70589132407 2003.36772574081 2029.10706529661 2014.49073936058 1988.80154165399 1963.93148192288 1939.61231719669 1923.85668910606 1920.36835933387 1923.95081184068 1951.98603311248 1976.99737730226 1924.40469137953 1871.81200545681 1822.07688605661 1772.84325066112 1787.73310812459 1835.08421433239 1887.79012717538 1946.36461579346 2007.38009615868 2074.36268845302 2131.40429463304 2102.35421022931 2073.30412582569 2029.26719975047 1983.86877086283 2029.78524824427 2109.48914287311 2158.48333926406 2181.64455999069 2183.85453288907 2148.21790671457 2118.16109869672 2115.43806282988 2112.71502696302 2029.71586371769 1945.30612033576 1829.25419322258 1705.08968389441 1653.54009762439 1648.58512351332 1664.31299654077 1708.33012314577 1739.12259482495 1726.99406611275 1714.46902077669 1694.20588852054 1673.94275626447 1636.69884307905 1596.73521662317 1581.84466908221 1579.01812104562 1581.87563237788 1590.68835160078 1591.14264794947 1572.23758322109 1552.38526232516 1525.2257479398 1498.06623355434 1482.8227855763 1468.50441963855 1450.144517247 1430.37317876426 1412.35724906125 1395.7524345395 1380.91631374832 1369.12339246993 1362.93961296896 1382.1759166405 1401.41222031205 1408.31187632404 1415.13671801946 1408.293250205 1398.18457075617 1389.16356759888 1380.80813809279 1386.93550774612 1411.98293000043 1439.08721488884 1472.46936421524 1505.13583908528 1526.58705090694 1548.03826272868 1562.54692490756 1576.04732277013 1589.26699815922 1602.35841198417 1620.65610347038 1644.16856942334 1671.10531001705 1705.56512592801 1739.65955897138 1771.2194502419 1802.77934151241 1788.58510106769 1771.42891779137 1743.68786177979 1712.46357794307 1699.89154974354 1701.64479968627 1710.40807611773 1730.66683988317 1748.97006114079 1759.04423653304 1769.09219212288 1774.13618063031 1779.18016913772 1756.89241006771 1728.54044762611 1718.14242768263 1718.21580428642 1702.20850959633 1666.13092764834 1633.98200890311 1613.13047151512 1595.15036466421 1614.61369895845
1051.83112046383 1066.77016291563 1081.70920536743 1146.19413483778 1213.96687905599 1298.59812684274 1388.8197514636 1427.03737693593 1425.08201910764 1391.43693285979 1305.5081503807 1214.85742593405 1104.15202743542 993.556147864672 911.800227661276 830.044307457575 797.531865463284 776.050540839903 775.024000746723 786.000894565967 858.870785284839 1009.4378902393 1155.28101791343 1287.43774606863 1412.35739473793 1440.82466132088 1469.29192790382 1483.66520482811 1496.17095621834 1504.23531448265 1510.36159397024 1508.98800113102 1500.39142202767 1490.43231711777 1477.61223725603 1468.01716105685 1478.94381363959 1489.87046622233 1503.20466997777 1516.66822845059 1526.89149763063 1536.103898241 1552.14450082349 1573.2234526916 1587.67622999731 1591.70458765773 1599.31136823292 1621.07041001996 1642.66647220029 1653.57715699169 1664.48784178309 1674.78750950876 1684.96045231066 1694.72064960619 1704.25011379702 1716.81765341595 1733.02962591466 1748.06606473831 1759.88899110073 1771.12216258173 1775.66740264568 1780.21264270963 1744.6751179361 1704.39701155002 1671.49119271341 1641.6341485727 1623.74705739371 1616.88069805411 1621.37288220936 1648.52981294471 1670.45157749858 1662.00691384431 1653.56225019006 1635.64448729255 1617.33459296664 1595.2832079759 1572.13593200067 1577.10601468605 1601.88690918408 1628.64054095685 1658.35502109868 1687.44773783636 1714.24398009577 1740.89749189935 1762.25923390277 1783.6209759062 1818.60356416767 1856.19090859852 1863.69849524127 1855.19851737889 1833.20327946609 1795.73551765502 1762.60544945308 1740.68086228819 1721.08537892687 1724.40131383931 1727.71724875176 1739.94900672719 1753.11146941089 1784.34608083787 1822.65480222056 1843.57003488095 1849.17709410245 1859.73241313 1879.67866108763 1900.80666538125 1928.21872914768 1955.63079291422 1973.69802961203 1991.49104153438 2000.76192837754 2007.69449674505 1998.94244532796 1979.64201384395 1968.30335334667 1968.36995962103 1969.69118091851 1975.35121648559 1978.31676534775 1912.1316768941 1845.94658844045 1809.83693518376 1779.00532167626 1808.40988767106 1868.30782698433 1926.37708445778 1982.44220645477 2041.85895109858 2109.46888504819 2164.28045791977 2108.25468233933 2052.2289067591 2025.69039219926 2001.830693476 2057.68550635869 2143.03547588498 2184.84179191847 2190.01921852725 2184.90073895436 2161.18360423004 2140.81287894452 2136.83515976714 2132.85744058974 2024.97076392615 1915.25824044819 1794.54220780067 1671.00504012777 1642.24673755726 1674.30492110734 1708.41105832908 1745.31831284102 1770.8233505362 1759.32216347928 1747.13905195094 1721.64807256752 1696.1570931842 1667.56420371464 1638.4744992835 1630.50474614778 1632.69693135337 1634.44590496886 1635.73052432848 1629.60260935436 1606.30615303907 1583.81424268344 1567.52865032278 1551.24305796207 1531.93174146148 1512.38552839646 1487.24790606494 1460.15758160404 1435.98191926935 1414.14925762033 1393.85469953779 1376.20658947684 1362.39095344684 1365.94371573658 1369.49647802631 1378.38012994695 1387.29611049328 1383.2189472628 1376.03786220525 1372.79850214557 1371.97117250275 1385.08263677913 1416.40347558617 1448.23300922483 1481.61515855123 1514.43215718285 1538.39273562559 1562.35331406843 1576.63240908933 1589.50546529663 1600.0883280893 1609.62480586772 1627.29276868436 1653.10548737332 1682.86575866637 1721.29873839406 1758.81303147936 1789.9546949797 1821.09635848003 1794.30710655423 1763.76763463207 1728.15011264763 1690.86152614327 1678.25726332197 1684.6110187367 1693.06353900018 1704.95774736201 1716.34188344482 1725.5796032967 1734.79110334618 1738.99863631325 1743.2061692803 1720.76652244054 1692.41455999894 1687.96013987716 1697.44364131006 1685.35840653327 1646.35323019401 1612.73353183315 1594.60047495135 1580.00908563488 1611.60102526439
1119.97000393605 1119.08533525783 1118.2006665796 1132.75839357292 1148.34086226102 1226.22750211887 1324.7745638086 1360.78135642268 1348.475918702 1307.34155770092 1218.64343573874 1126.22323992379 1017.99493413464 909.911911388012 840.086723371608 770.261535354943 781.480997930985 810.855413923817 836.272149052517 859.366407470165 933.582204372859 1071.97329293517 1205.85130675924 1326.65395204087 1439.84033650144 1451.520788877 1463.20124125255 1475.28747118684 1487.4274687178 1484.03958952415 1473.87585251431 1461.33465896291 1446.5037816416 1438.66953656724 1445.52652853846 1453.73794952628 1470.56803512391 1487.39812072153 1502.94592486597 1518.42483362964 1532.26256396853 1545.58829814383 1564.8986293509 1588.6248361139 1608.1359756719 1621.01589400797 1633.71170612704 1645.67939881027 1657.62123335809 1667.86773963384 1678.11424590958 1679.33574523821 1678.68545835717 1684.72105012559 1694.49418358751 1706.42360759017 1720.93968762918 1734.77937029102 1746.77001072936 1758.18841019596 1763.11748927918 1768.04656836241 1740.76703880902 1709.67820272481 1672.71916010032 1633.33252128689 1612.56435139905 1608.93819985871 1613.50223307913 1634.4088952758 1649.82116094325 1633.3633403579 1616.90551977261 1599.59593483779 1582.2510917934 1570.33603030767 1560.01136398552 1571.42212560003 1598.14714477762 1625.53741638757 1653.92615424266 1683.99764572865 1720.28436432597 1756.35671086826 1784.48115617079 1812.60560147333 1828.35724580426 1841.74280149026 1836.96583412677 1822.52330491474 1794.96661568922 1752.37433963867 1716.14241759571 1696.34107655824 1680.48292771461 1703.4140013814 1726.34507504819 1743.11097593233 1759.23330691892 1782.04914071336 1807.48506000642 1834.59538777556 1863.17937823346 1894.05669465412 1929.28634138341 1963.91473434238 1995.34592468347 2026.77711502468 2014.27422063164 2000.48207664277 1985.60981831256 1970.44119595387 1953.68839081551 1935.87017495733 1925.10588884501 1924.44638352506 1924.40230303871 1926.48653601957 1926.58263220572 1875.6556796704 1824.72872713509 1810.03530582116 1801.70062933641 1836.12156104364 1892.18667292346 1943.76871994528 1990.43757259463 2042.28730619911 2106.80193168151 2157.83808517053 2092.14694148287 2026.45579779545 1999.91724351333 1976.9355667747 2015.27489879647 2076.30360973424 2099.75802493291 2091.60497007693 2076.3167389418 2048.13943512875 2020.66491814454 1996.63313253815 1972.60134693168 1895.47553727515 1817.41678057517 1747.65984597216 1680.03137427338 1670.72816078049 1698.8503506444 1731.45337258566 1770.18511529845 1800.4769714627 1803.37693151426 1804.78332970336 1777.04262329064 1749.30191687803 1722.39111774984 1695.61324006174 1682.35783541169 1675.60881590017 1673.37889185056 1675.88363913473 1671.02367506625 1649.10593485389 1627.77942139393 1611.01366818445 1594.2479149749 1571.43256427761 1548.1475641343 1524.34309093818 1500.35720084204 1472.08721920608 1440.37339777668 1411.1985811481 1386.39235476172 1365.66076101062 1363.39500474309 1361.12924847556 1365.39598204716 1369.70233122394 1367.85060164534 1364.52777350969 1364.99843763763 1367.79042522949 1380.74907029457 1406.98924278076 1435.6809412824 1471.85507820066 1506.98934178875 1525.82785410151 1544.66636641434 1560.18605962054 1575.22376176443 1589.02802645917 1602.26873592987 1625.54324372944 1658.86792532588 1695.26612656504 1738.41680013396 1777.96133257853 1792.49124027589 1807.02114797325 1775.39309767105 1740.77696240926 1705.46922739183 1669.93390347704 1659.5352657613 1668.44206908068 1675.80552644649 1680.63810694758 1686.94217485214 1699.4383542984 1711.87047559785 1712.07730042044 1712.28412524304 1693.23101806296 1669.90463328671 1662.54677325999 1664.50234146469 1650.74408810012 1617.37341265129 1590.17266052093 1580.7143243413 1574.34102180475 1608.19654394497
1201.21701641267 1184.43969246754 1167.66236852241 1122.00865200014 1074.43872739095 1143.3513897388 1250.89034848744 1285.62504440455 1264.11859573986 1217.65005845694 1129.99750592021 1039.14096913504 934.676713277534 830.400459855501 775.631471565578 720.862483275451 779.427479824671 863.380619826293 914.647800967792 946.733956444311 1015.84834034982 1131.44601543719 1245.10616131379 1353.15285960488 1453.52491606748 1451.61296591211 1449.70101575674 1464.07450152967 1480.60589064752 1465.59502623105 1436.82015344812 1411.63312876163 1389.9014932323 1385.01584712136 1415.50270810784 1444.95844818575 1467.85283645102 1490.74722471629 1507.99340199677 1524.93610795608 1542.30969763505 1559.81770951218 1582.34769882819 1608.58327221227 1633.85439849097 1657.60823885179 1676.40897118193 1675.62071687463 1675.00138420573 1685.45700436656 1695.9126245274 1686.77843132971 1673.58131134322 1674.58143966837 1683.51811758992 1694.23080743425 1707.07397639253 1719.85683276026 1732.47481485387 1744.4188814082 1748.72061883616 1753.02235626411 1736.70934243868 1717.95822557479 1677.65571234088 1628.44072092818 1604.0500054112 1602.51499272175 1605.67957179935 1618.22167859237 1625.66913772852 1603.56524224572 1581.46134676301 1565.93535544472 1550.68165125125 1548.94472387205 1551.16689065534 1568.4998756166 1596.47957810474 1623.20136475207 1648.03516656062 1677.53684437239 1724.27925722424 1770.76885319059 1807.88519555203 1845.00153791347 1839.0248693084 1824.80739216247 1806.89449567951 1787.01500545512 1754.60587620051 1707.83132244813 1669.40130209019 1652.527555444 1641.37225789069 1686.46940337714 1731.5665488636 1751.94239707404 1769.73763914136 1780.70062039179 1788.98920110738 1822.42052094966 1877.98020258417 1933.09104014963 1987.35005042218 2038.62457649412 2074.02893065193 2109.43328480987 2063.52351978824 2015.22758475939 1970.2819765806 1926.25563807943 1898.52418770536 1881.75154127264 1871.08719285189 1869.1730042214 1867.87424042451 1868.70379009482 1868.29809526095 1836.19139238383 1804.08468950672 1811.76940918088 1826.43726005612 1864.70181757973 1914.911740677 1958.54341477772 1994.96568705766 2038.51151954534 2099.47120898119 2146.54113760313 2073.3218940522 2000.10265050154 1971.40356047416 1946.7489726548 1964.18316033857 1997.19061067417 2000.91472751506 1980.00572566852 1954.19693390226 1919.5370996514 1882.88578139514 1836.47881008412 1790.07183877293 1750.57768159816 1711.20499364005 1699.27483402531 1694.38052785377 1704.12049068602 1723.25078349101 1751.89597912031 1793.55531622437 1829.87783707377 1848.87956627735 1865.51112380098 1835.88839242245 1806.26566104402 1780.17651308829 1754.65331871073 1734.60515900299 1717.19133135183 1710.62811248686 1715.43311250703 1712.81034193853 1692.98374057707 1673.29241746916 1654.64463929386 1635.99686111849 1609.74709163229 1582.90715544244 1561.43726288799 1541.84276437875 1509.7334755695 1467.56395988556 1429.08639982293 1396.96118745836 1369.40202646749 1362.53576472796 1355.66950298843 1354.50431756849 1353.3737057329 1353.68062963907 1354.33096532016 1358.25587531822 1364.18457118644 1376.10921768633 1395.86685973471 1420.44988509566 1459.76073029028 1497.47978169561 1510.25399134075 1523.02820098594 1539.97001052062 1557.51707928559 1575.26604698796 1593.10726193065 1622.75829396682 1664.2384170818 1707.74550391282 1755.70579683884 1797.10899517497 1793.02776709925 1788.94653902353 1753.43733324366 1715.89360359059 1681.90639452956 1649.08955112095 1641.17284222332 1652.3798982787 1658.55819689407 1656.49001918719 1657.94107837459 1674.20130775248 1690.35496882042 1686.17040205611 1681.98583529181 1666.75614977229 1649.07583989349 1637.72221505348 1630.05854454398 1613.93646031999 1587.25742919407 1567.44975072303 1567.4015393725 1569.84259541767 1604.74368698335
1175.54580939276 1131.40432653923 1087.2628436857 1035.16159852701 982.532151625186 1040.59151719722 1135.35593019788 1157.67270905025 1124.02383825141 1076.88337830932 1007.48365066027 938.004706136636 868.189317707104 798.533990410517 771.028058286061 743.522126161503 804.445955347269 885.179089471803 947.873220468151 999.98156496647 1077.04632895802 1185.44006987808 1286.54699332409 1366.54240643599 1439.81075632133 1423.42398027797 1407.03720423461 1421.25716596491 1439.53267659856 1426.01971450777 1398.63530204456 1381.17863343629 1373.28318858933 1382.73626491324 1428.61704358269 1471.88008759905 1498.48564957987 1525.0912115607 1541.9617761336 1558.30929145545 1575.81456290817 1593.68101793996 1609.34445245396 1623.38233650858 1640.50655410532 1662.48624837335 1679.6116668671 1677.5389692107 1675.57587986064 1680.79900320483 1686.02212654902 1675.58574106619 1661.90157385373 1661.1528468124 1667.63529303902 1681.06308790845 1702.82242607044 1720.56824705827 1727.34246618891 1732.4234079951 1718.30226606755 1704.18112414 1700.7665131713 1698.61816175343 1663.60706187661 1615.00572758956 1589.77734157416 1586.06842150996 1585.48335872886 1591.13161571329 1593.57720423182 1577.44580805254 1561.31441187331 1550.85833248443 1540.63717833199 1543.14711947975 1549.38602691717 1567.21721760733 1593.21605109688 1620.56197386786 1649.92972040269 1682.97091562663 1729.57994244861 1775.54620848771 1797.68194670858 1819.81768492945 1803.82036669054 1780.53074721035 1763.21339375418 1749.07430503988 1719.90688020293 1673.50923609342 1639.77978696956 1638.77584395117 1641.43854610664 1680.17007486857 1718.9016036305 1735.13011945235 1749.00959133917 1766.62992687126 1785.71457531555 1826.34462768451 1885.93699321283 1945.18045988757 2003.76177775282 2061.25883625538 2112.9902812284 2164.72172620161 2103.33125166834 2038.62120441869 1976.61408813333 1915.3486076906 1871.98948529153 1840.67292897661 1820.8673986358 1817.55145613525 1821.21765310531 1849.03006689023 1875.21836842915 1859.72585681768 1844.23334520621 1841.56235620234 1841.14145952554 1873.18147525911 1921.65418523999 1960.68160221593 1989.35749363802 2029.78951468545 2098.95991283525 2153.23551523037 2078.5180647559 2003.80061428172 1970.47706966881 1940.91401845958 1951.16880940366 1976.15659522987 1971.76486289545 1942.65910140302 1907.95424627984 1863.1351176035 1823.52854379232 1809.45663491268 1795.38472603299 1793.16618905141 1791.15593479968 1781.99905906705 1771.00989657403 1765.54424854652 1763.62285841306 1786.99611028555 1844.96646269586 1891.93882515853 1903.21689287414 1912.52423809274 1883.37261070049 1854.22098330834 1818.50314640643 1781.73363778139 1760.95981766071 1747.88237893952 1745.30759764344 1753.73648543518 1751.43700865005 1724.28903033112 1698.08618536684 1679.17415838029 1660.26213139367 1631.92276821102 1602.85153101017 1576.64661379637 1551.44270882763 1516.3368994231 1473.27127585249 1434.88838381869 1404.5625601653 1378.20418505704 1369.82589959514 1361.44761413323 1358.37754359613 1355.33966417631 1354.92450687831 1355.13588959094 1357.3730148979 1360.84973778126 1368.70237694328 1382.27162967282 1400.86245886683 1434.77991988647 1467.46233189846 1480.79041405373 1494.11849620905 1522.05426052385 1552.11149395633 1579.8690011433 1606.57576778365 1641.06381978426 1683.34585644249 1724.21614941589 1761.98486462937 1794.15546795695 1787.49379509427 1780.83212223159 1739.23946977918 1695.38552286618 1660.77474805316 1629.20567955567 1620.38696571515 1629.04094604283 1634.19478555994 1633.60887153689 1635.5118914038 1647.88850161902 1660.18809413009 1657.78909927811 1655.39010442615 1647.27204997912 1637.8850850689 1623.88247267285 1607.18784568717 1588.11265402881 1566.06627939272 1552.04805703908 1561.11582939865 1571.46954626736 1598.59197368813
1104.76998098913 1028.42495983156 952.079938673983 916.212060952095 883.030205363709 929.443462753767 1002.25091781985 1007.44779326627 960.415633821565 914.570073951163 870.68224028323 830.939612668334 808.802190039674 786.767078253483 791.673798318041 796.580518382616 840.885047753344 894.015149045794 962.051520141265 1038.83530308025 1129.35648895475 1237.12288821953 1328.91000385509 1374.40162592694 1414.53813844814 1383.30427656328 1352.07041467843 1365.1071826527 1384.01003494162 1377.53016523001 1359.97410536608 1358.84371048065 1373.53256522358 1402.12941226233 1459.92968238198 1513.86264407821 1543.18668656522 1572.51072905224 1588.13074728443 1603.01446541064 1619.21532906344 1635.82710078469 1640.3690011612 1636.00486332785 1639.11539617105 1653.98521834597 1666.15314609613 1667.63538448629 1669.06072589228 1666.75574937317 1664.45077285407 1656.5315132762 1647.44785153574 1646.33676072535 1649.68249867559 1667.48408797354 1702.62671478137 1727.87501508823 1726.07556493015 1721.17633926332 1681.12507558446 1641.0738119056 1651.37259152826 1667.62626199839 1641.54929581046 1597.9666947656 1573.07546831317 1565.39338443226 1560.0672273758 1559.44206780748 1558.13573266038 1552.87825850584 1547.62078435132 1543.62098624912 1539.67324864943 1543.92788900678 1550.58502421437 1566.62623942183 1589.27925074991 1617.79461600077 1655.10869016906 1693.42296911095 1735.43149046093 1776.25902340123 1773.30109541116 1770.34316742109 1749.26420548221 1724.71990269148 1713.79086411252 1710.10746965279 1687.59635267916 1643.49896130566 1617.38036268844 1637.70603594936 1658.03206296217 1678.36156983605 1698.69107670992 1707.49976677248 1715.10582210657 1747.19224531054 1788.86119334471 1837.06026265977 1891.00655329064 1945.90286771463 2002.60216061405 2061.92444148681 2135.19461662418 2208.46479176182 2139.1559550311 2065.66312460761 1992.08368810194 1918.48048843885 1857.53245116842 1805.0953924593 1772.25021272292 1767.47047302673 1778.72545570749 1845.43305211938 1909.64600457435 1909.83703434474 1910.02806411514 1883.19223359718 1851.61336804179 1873.18147525911 1921.65418523999 1957.48894067147 1979.47318777068 2018.98089352651 2101.32546643708 2167.51973035132 2093.84784930231 2020.17596825358 1981.1885379186 1945.35207015662 1954.21782124823 1979.62383484463 1972.01593587191 1936.63675782673 1893.72115130597 1837.19164506453 1797.25444286967 1838.59771353899 1879.94098420847 1914.84787130146 1949.64166082584 1920.03315105311 1873.91285586477 1838.79337116434 1810.73274539443 1828.27967867967 1908.20698902448 1967.77784345606 1961.28123093888 1953.75166456666 1926.06383437005 1898.37600417353 1848.62088794113 1795.33138239386 1776.39137215578 1773.97874157424 1778.90301175565 1791.51417724922 1788.73059469956 1750.29046658571 1714.13932003368 1695.64552081731 1677.15172160087 1647.29009390954 1616.54594562796 1582.62361336392 1547.59135579593 1509.84456454046 1469.91564924622 1435.59182614518 1410.91207738926 1389.14133681884 1380.55393747184 1371.96653812484 1368.47950032276 1365.02339313276 1362.67088516515 1360.58201514178 1358.9621338729 1357.62923739916 1360.1282519639 1367.63320202579 1379.43725024432 1404.36281420504 1428.7934043192 1445.46730863592 1462.1412129527 1505.10891688633 1551.89526112611 1592.21940359943 1629.59097837942 1668.26659361349 1708.24837753572 1742.37055508473 1763.61927337598 1781.87831186253 1779.39891670167 1776.91952154082 1728.31436176568 1676.7232011043 1640.6687241691 1609.7269973269 1598.57872904073 1602.63220389639 1606.82937722278 1611.2621964419 1615.85513640457 1621.12187452667 1626.37154517471 1628.36394190965 1630.35633864459 1630.73708240821 1630.76024232709 1614.67679510486 1589.19938494533 1566.92249307835 1548.6401683739 1539.73489852194 1557.79456794045 1575.68055456206 1591.30171830281
998.224464522912 915.381954928713 832.539445334514 814.200747759595 800.14245764595 836.613369877394 889.840056492482 890.896050322774 851.650290358334 826.353594868103 824.070938501569 825.876367439832 845.044402451548 864.226761025663 887.180987765114 910.135214504651 946.133359992584 985.053496451144 1041.7401152051 1108.85259768644 1182.12310737917 1263.12408066972 1329.31958584181 1352.62039874292 1372.6919095406 1349.72480497236 1326.75770040411 1342.93694922755 1364.30328959083 1369.09892035253 1366.66363511938 1376.03790796344 1396.78574452431 1427.75713507743 1480.19551858516 1529.36524679915 1557.73547695415 1586.10570710915 1605.61800172238 1624.65437052314 1642.36820360509 1659.66944704777 1658.45221119431 1643.57068021385 1636.98435566835 1643.44820239551 1647.96743862617 1644.79595848337 1641.63960717102 1639.4751423037 1637.31067743638 1639.75606635219 1643.15753882456 1644.0956087693 1643.65658676585 1658.89859867645 1692.95136000308 1712.47290356098 1692.2710003414 1670.65248781372 1632.96935896027 1595.28623010683 1615.43369652452 1642.42077736756 1626.93132040824 1593.87589186285 1574.09922231741 1566.54830190951 1559.61180493654 1553.90132355726 1548.6017326798 1545.68550013182 1542.76926758385 1543.74571730074 1544.88330151202 1550.61348259391 1557.68884557169 1576.56565168093 1603.75746958839 1632.9483978892 1665.13975753149 1698.07438526284 1733.75426333462 1767.90498515371 1745.36183021003 1722.81867526635 1707.42534507296 1693.39929777646 1680.04730785544 1667.05403149173 1643.10744917988 1606.60273257391 1588.86604955998 1619.61246919846 1648.92547918486 1664.13802355597 1679.35056792708 1689.42791421328 1698.96920757414 1739.36997325422 1791.85028207341 1844.52008446682 1897.35666194154 1952.40491354676 2011.65053460877 2072.25128832912 2140.05804040883 2207.8647924888 2129.65794367665 2047.16631285358 1974.76585688612 1905.13423854877 1838.64444055777 1774.26761154996 1738.1407436213 1742.48205079252 1767.47721330218 1863.89926024547 1957.09790832401 1967.57204883183 1978.04618933965 1939.19486229713 1891.68724228042 1895.85491261966 1926.18217563532 1953.30420391458 1976.91346988326 2019.42362303507 2108.13782809442 2180.92206272832 2115.74834539404 2050.57462806 2015.15815058481 1982.44501559137 1986.31023334695 2003.70980290826 1984.87170018188 1935.5504940689 1887.10835599314 1840.25417753844 1813.86469594042 1887.72532022641 1961.58594451267 2003.29038463897 2044.4297891049 1993.65606312253 1919.31718646377 1877.31229513535 1856.05506065997 1883.88589066231 1978.85760771676 2046.86198283694 2027.34306905409 2007.04454366431 1971.53176995496 1936.01899624574 1873.08550869392 1805.76020432088 1789.60684094286 1798.07503572673 1805.96721468385 1813.25589994507 1806.0204361109 1765.14486445897 1728.52185998407 1724.70342543908 1720.88499089407 1682.81066209136 1642.07693953667 1600.36587347266 1558.3134872405 1521.75183263898 1489.60399597529 1461.95889101987 1442.06114825831 1423.44775766328 1410.65492575433 1397.86209384539 1390.06912765564 1382.30648263149 1376.83095027401 1371.9017844502 1366.35389610743 1360.42739750238 1358.53809020413 1361.92289263037 1368.91096951307 1386.89680005976 1404.81026724071 1421.58973533224 1438.36920342384 1486.43245453234 1539.03903967769 1590.28794886783 1640.91653849673 1681.51549901096 1712.06846174658 1737.61812779253 1752.17563293441 1764.88213986931 1764.74887599118 1764.61561211304 1719.03047480889 1670.50296168796 1633.07853978604 1599.30787898669 1586.58900470299 1590.03829276352 1593.388244197 1596.5752971108 1599.43940463791 1600.94453766645 1602.47284866481 1608.42460253511 1614.37635640539 1615.48700670559 1615.5235421323 1598.74129185915 1572.14971004086 1550.83248850703 1536.09819650844 1530.16692437405 1549.54987933641 1568.03035194143 1574.7424587115
858.195469734783 792.918526488244 727.641583241704 728.045057012227 732.807016556751 760.930451109461 796.800685261981 805.865268670121 794.222541537764 807.498062921055 861.885269414233 916.295550470571 970.803832062757 1025.21014553652 1052.76487774796 1080.31960995951 1115.79296976919 1153.04019514701 1182.7519332091 1208.04163867235 1235.31700981704 1265.08508126017 1290.45718109166 1303.09318585311 1315.33136737396 1322.2675483738 1329.20372937365 1352.57465935283 1378.12327741792 1398.16566440455 1415.80531214016 1430.23473306086 1441.57244479261 1459.22095218828 1490.12060553162 1520.08035469865 1544.05919326672 1568.0380318348 1596.25672345586 1624.70321708572 1646.56732493781 1666.37793500159 1664.42122464328 1646.40298538646 1634.16072198739 1631.00533000034 1625.35668129044 1609.84748192727 1594.64872266449 1599.80324377537 1604.95776488625 1625.11375264396 1648.38104419998 1653.6256674996 1648.79525390923 1654.98746116279 1674.40225053304 1675.81334424634 1628.00840819478 1583.36221837421 1574.53680566335 1565.71139295249 1592.08985384551 1622.63187073509 1619.27762350279 1601.90573633923 1591.715675012 1588.13791842082 1582.52173458934 1572.83808939332 1563.31933539306 1554.75702794762 1546.19472050221 1550.76198050122 1555.87272852923 1562.82649504095 1570.32008578891 1596.3624073855 1635.47371674319 1664.87789483147 1679.71280201119 1697.29591021661 1725.02946065494 1751.06359916269 1714.09158614772 1677.11957313275 1677.49096269167 1685.00364555952 1660.98060772589 1620.17518464505 1587.21854724452 1563.26066374403 1554.62767901721 1585.58321254079 1615.7614096141 1638.29293996341 1660.82447031272 1680.30363287736 1699.46416495241 1742.42071500932 1794.69190994343 1848.93218750582 1904.9054732569 1964.31719341592 2030.25445880085 2091.621881191 2128.68889216237 2165.75590313388 2077.7340064083 1986.04136464122 1926.75619410153 1876.36305319253 1815.60865809887 1747.8860069296 1717.61173461455 1740.98240532911 1785.47597712846 1903.01852646596 2016.74163720871 2032.44362484382 2048.14561247893 2008.65161186919 1959.47108077176 1939.7526208492 1934.94875116947 1948.19080015866 1981.21019095641 2030.39857623828 2119.11278129762 2193.49887765362 2143.79958781608 2094.10029797874 2070.8993697858 2050.10572624258 2045.58974478787 2047.09665908225 2009.52653045736 1939.08482195014 1887.62881099146 1870.46880421971 1870.61836135402 1955.5620215498 2040.5056817459 2060.61820137221 2079.59153401844 2006.98461806424 1910.897897356 1883.32079152162 1899.70405636271 1952.89931842135 2056.44470476451 2128.98383228298 2100.89124921138 2071.63171531117 2019.59894467961 1967.56617404825 1892.25832631957 1813.2226443814 1800.74786452845 1820.29909522215 1826.91764698853 1819.98658806353 1804.58506670219 1769.56468383281 1741.34058081833 1765.5434068755 1789.74623293276 1737.19638382502 1678.68798103759 1629.12142074203 1582.67764292296 1550.88269817195 1530.86346684355 1512.34929509014 1496.42471614532 1479.62980720636 1458.89064766395 1438.15148812154 1422.41219429832 1406.70322164071 1396.99477318172 1388.71978519643 1379.17742725895 1368.85953706698 1363.48551358217 1364.5700632724 1368.58701470469 1381.55411200918 1394.57428241593 1408.42615611619 1422.2780298165 1466.13551743683 1514.35071099526 1574.98745790922 1641.29958891993 1681.70239362665 1696.15358721024 1711.42295144632 1728.4898232093 1743.46856657609 1743.96264435323 1744.45672213037 1711.28291071786 1675.9295723577 1637.20424847627 1597.36928500927 1583.79024519554 1590.37624153244 1592.98142026875 1589.05860108947 1586.0575469983 1586.93533837156 1587.85810779832 1597.36479771517 1606.87148763198 1601.43969936205 1592.69345161492 1576.50609788663 1555.978818736 1539.51666522733 1528.1281953902 1523.16867689399 1536.69644307379 1549.27704442772 1549.50662075996
755.75465895642 722.935761971842 690.116864987263 708.960794808263 731.233017351792 757.879767211923 785.977135513445 804.193024142023 814.775489872624 853.960079518763 940.334242346863 1023.77022025796 1094.72736187253 1165.49728275606 1186.96578716766 1208.43429157934 1234.94926985136 1262.59471752739 1269.78577925319 1264.97364096431 1261.42925167427 1259.47632782453 1260.77709466253 1271.50451790066 1283.28931286483 1309.16625949575 1335.04320612667 1361.88799165171 1388.86102076781 1416.06421732012 1443.36785141766 1461.15164482667 1469.76705835753 1481.67021297868 1500.47682943667 1519.79212097779 1542.34427460857 1564.89642823935 1596.54190073336 1628.67594589189 1648.7575469347 1665.07916365408 1658.84434521489 1635.96573102498 1618.05867445591 1607.9729637392 1596.014199939 1576.64772130668 1557.78962735111 1572.26258776202 1586.73554817293 1614.09593940006 1644.1291834484 1651.10589005657 1645.19352486025 1642.32276651046 1643.10067728069 1630.102831708 1579.44671601541 1534.27866182791 1551.34625860996 1568.41385539202 1598.12025887838 1629.32145183116 1633.30440187948 1626.03137612986 1620.05862289723 1615.28303015253 1607.22023170463 1592.5981693641 1578.03693810629 1563.8285557634 1549.62017342056 1558.30789263443 1567.94337780934 1574.91251032776 1581.10066218915 1609.47033741213 1653.46857826045 1681.92562745748 1687.05716213064 1695.67850257077 1717.18939203242 1736.88855946232 1689.41764835348 1641.94673724464 1643.9547450847 1655.42475821803 1627.17891939302 1577.79746948445 1547.96831607639 1540.55617232504 1544.35235011996 1577.10277085284 1609.42654522262 1637.55339489337 1665.68024456412 1688.96691218671 1711.74832301043 1754.23533873249 1804.43585979221 1854.49786037973 1904.43794779327 1959.87596951441 2025.74810592778 2083.34086361899 2096.90753344042 2110.4742032619 2018.73797988165 1923.91163380234 1875.31503558965 1839.40305213634 1787.87133457708 1725.83487452774 1703.69936062659 1738.72210159352 1793.37275393439 1915.90228575886 2034.32404739467 2047.32501553599 2060.3259836773 2034.54872935484 2001.96615373825 1975.90004096356 1953.1327584898 1959.82686578859 1998.80904810189 2049.32679366871 2128.04373211888 2194.07724637742 2150.26879742506 2106.46034847287 2089.7468717497 2075.4948796876 2067.63727293962 2062.14565191593 2022.41417187536 1953.88014750817 1910.35121854355 1911.99181018403 1927.5413746883 2011.22661753156 2094.91186037513 2095.3197837448 2094.26439122574 2015.0223626894 1915.73445115836 1901.39274452163 1941.55822875883 2011.35544922282 2121.68189153166 2195.98876835517 2153.3931026956 2109.62627431426 2043.00401341609 1976.38175251817 1902.15915482421 1826.71925523291 1821.45224455552 1849.94916450466 1853.22408290976 1830.07382647672 1806.02455029347 1779.89300952251 1762.61091015501 1813.59395682143 1864.57700348805 1805.3317342915 1737.52909122257 1681.02457980578 1628.46574374307 1596.88544446169 1582.16909850782 1568.34233757146 1556.04618911202 1541.04907856017 1513.81147137598 1486.57386419179 1464.13052952656 1441.71626922836 1424.89769641804 1409.41587296017 1394.54163556596 1380.0391937859 1371.50686961874 1370.77379323685 1372.08105331509 1379.61573737979 1387.37856000779 1398.7165193144 1410.05447862106 1447.10971513939 1487.89986379504 1549.82709621909 1621.41182200482 1661.12774918377 1668.92286689438 1681.15787409229 1703.14724579582 1722.08164265069 1719.82467543587 1717.56770822104 1696.4703070083 1674.15325007634 1636.47916149312 1593.75144200691 1580.84592719308 1590.84441847143 1593.11119872958 1582.69902745366 1574.9828696335 1578.61170599873 1582.25736614494 1589.11379214403 1595.97021814309 1585.52128851156 1571.23275090531 1556.22436372144 1540.79613391067 1529.23586747063 1522.50320645409 1520.75049766125 1533.31828836368 1544.52101607841 1537.92332864149
